ply
format ascii 1.0
element vertex 1197
property float x
property float y
property float z
property uchar red
property uchar green
property uchar blue
end_header
0.623348 0.0155029 0.869422 128 128 128
0.618677 0.0291403 0.861702 128 128 128
0.200706 0.23866 0.356891 128 128 128
0.156839 0.18379 0.266531 128 128 128
0.157919 0.165617 0.267769 128 128 128
0.20241 0.235249 0.359111 128 128 128
0.158521 0.171851 0.264678 128 128 128
0.401238 -0.381504 0.751633 128 128 128
0.312184 -0.0664869 1.72796 128 128 128
0.0935755 0.206226 1.08631 128 128 128
0.0385158 -0.357992 0.655526 128 128 128
-0.121133 0.523113 1.5665 128 128 128
-0.0883055 0.518565 1.54248 128 128 128
-0.0695586 0.253819 0.372173 128 128 128
-0.0723123 0.256736 0.428797 128 128 128
-0.151474 0.120312 0.857727 128 128 128
-0.216945 0.225688 1.30479 128 128 128
-0.274925 -0.347776 1.53695 128 128 128
-0.118479 -0.351856 0.761207 128 128 128
-0.148936 -0.337372 0.504585 128 128 128
-0.149069 0.0841238 0.338742 128 128 128
-0.133998 0.0819464 0.319085 128 128 128
-0.600648 0.0528742 1.29012 128 128 128
-0.664843 -0.284199 1.40665 128 128 128
-0.500772 -0.332453 1.01423 128 128 128
-0.279024 -0.347724 0.514142 128 128 128
-0.269801 -0.348935 0.526816 128 128 128
-0.640328 0.136099 0.883298 128 128 128
-0.590822 0.127438 0.697042 128 128 128
-0.527648 -0.319068 0.652795 128 128 128
0.429397 0.0606368 0.496244 128 128 128
0.593872 -0.202929 0.708015 128 128 128
0.616802 -0.213964 0.824658 128 128 128
0.165548 0.151688 0.258109 128 128 128
0.463264 -0.384438 0.913235 128 128 128
0.445411 -0.360219 0.863713 128 128 128
0.145558 0.0221902 0.317697 128 128 128
0.562762 0.0941403 1.50262 128 128 128
0.0957727 0.0723432 0.30777 128 128 128
0.199485 -0.371482 1.02245 128 128 128
0.148888 0.524849 1.57767 128 128 128
0.112528 0.509499 1.52226 128 128 128
-0.132544 -0.343629 0.500076 128 128 128
-0.133281 -0.33905 0.502326 128 128 128
-0.160312 -0.34864 0.529052 128 128 128
-0.666901 -0.210545 0.938611 128 128 128
-0.652313 -0.321737 0.929906 128 128 128
-0.665451 -0.29632 0.948511 128 128 128
-0.632595 -0.0192037 0.800913 128 128 128
-0.667966 -0.228642 0.772971 128 128 128
0.600607 -0.214586 0.689214 128 128 128
0.633437 -0.221933 0.704799 128 128 128
0.604305 -0.111104 0.690442 128 128 128
0.607726 0.0386917 0.71138 128 128 128
0.627388 -0.160714 0.743774 128 128 128
0.39988 -0.36381 0.536871 128 128 128
0.175384 0.157076 0.243366 128 128 128
0.40543 -0.364684 0.615966 128 128 128
0.606298 -0.121976 0.976234 128 128 128
0.17287 0.0700161 0.295285 128 128 128
0.588632 0.0646147 1.7194 128 128 128
0.476336 0.182378 1.35012 128 128 128
0.310005 -0.377007 1.12454 128 128 128
0.0946351 0.0738882 0.366499 128 128 128
0.10773 -0.362486 0.743052 128 128 128
0.132287 0.153891 1.0918 128 128 128
-0.00234256 -0.253336 0.424286 128 128 128
-0.145624 -0.354417 0.982503 128 128 128
-0.131305 -0.344449 0.866116 128 128 128
-0.0780843 0.240328 0.37818 128 128 128
-0.16109 -0.349155 0.63561 128 128 128
-0.148762 0.0873695 0.320829 128 128 128
-0.55218 0.126172 0.908798 128 128 128
-0.603652 0.131028 0.938408 128 128 128
-0.385433 -0.341534 0.525808 128 128 128
-0.682315 -0.145724 0.966819 128 128 128
-0.6648 -0.140279 0.769193 128 128 128
0.108393 -0.355163 1.48931 128 128 128
-0.0704388 0.116043 0.908471 128 128 128
-0.082721 0.128879 0.888656 128 128 128
-0.392758 -0.292514 0.973797 128 128 128
0.408995 -0.367355 1.09574 128 128 128
0.0617015 -0.334298 1.06323 128 128 128
-0.0867405 0.0798646 0.329857 128 128 128
-0.141362 -0.341852 0.647752 128 128 128
0.483947 -0.405089 1.7876 128 128 128
-0.257379 0.0768677 0.401941 128 128 128
-0.22272 0.0721765 0.393188 128 128 128
-0.177118 0.0576896 0.273164 128 128 128
0.17609 0.0518386 0.436842 128 128 128
0.100887 0.0721487 0.341507 128 128 128
-0.085494 -0.344277 0.650314 128 128 128
0.171461 0.0517814 0.294347 128 128 128
0.15318 -0.0213671 0.303077 128 128 128
0.151383 0.0615931 0.234145 128 128 128
-0.0285802 -0.341825 0.721591 128 128 128
0.170044 0.151385 0.268078 128 128 128
0.187248 -0.0269295 0.340448 128 128 128
-0.0750839 0.0779807 0.32784 128 128 128
-0.234141 0.0701625 0.293843 128 128 128
0.198664 0.211556 0.369594 128 128 128
-0.0847235 -0.349676 0.662394 128 128 128
-0.116066 -0.356359 0.725374 128 128 128
-0.277441 -0.354612 0.66955 128 128 128
-0.221459 0.0710002 0.268448 128 128 128
-0.276597 -0.356606 0.709849 128 128 128
0.12568 0.0629338 0.322239 128 128 128
-0.247764 0.0854981 0.390296 128 128 128
0.0350655 -0.361363 0.66299 128 128 128
-0.0566692 0.076884 0.323759 128 128 128
-0.158791 -0.307278 0.924932 128 128 128
0.0927386 -0.330724 0.67877 128 128 128
0.170793 0.0663815 0.293502 128 128 128
0.177314 0.145576 0.257673 128 128 128
0.131142 0.0356933 0.302623 128 128 128
0.146657 0.0391689 0.298334 128 128 128
-0.0779522 0.228968 0.380804 128 128 128
-0.145672 0.0822849 0.324814 128 128 128
-0.18972 0.0663532 0.25245 128 128 128
-0.00307833 -0.333292 0.697118 128 128 128
0.121551 0.223037 0.38511 128 128 128
0.147313 0.239234 0.413853 128 128 128
0.197887 0.210218 0.368766 128 128 128
0.190784 -0.0249062 0.338344 128 128 128
-0.16378 -0.326678 0.990088 128 128 128
-0.0552907 -0.0118072 1.37679 128 128 128
0.38115 -0.143478 0.518077 128 128 128
0.1919 0.0430708 0.460189 128 128 128
0.16808 0.161476 0.27012 128 128 128
-0.0704948 0.255427 0.426792 128 128 128
0.484519 -0.0887256 0.783495 128 128 128
0.162512 0.00237691 0.353541 128 128 128
-0.21132 0.0636854 0.260027 128 128 128
-0.00105576 -0.177879 0.4724 128 128 128
0.0328002 -0.357231 0.767658 128 128 128
0.055795 -0.358656 0.647505 128 128 128
0.0522384 -0.351092 0.656361 128 128 128
0.167919 0.149096 0.262565 128 128 128
0.0954487 -0.353742 0.657606 128 128 128
-0.148746 -0.348062 0.629417 128 128 128
0.200578 0.21307 0.373637 128 128 128
0.165282 0.146159 0.258563 128 128 128
-0.369205 -0.346692 1.14929 128 128 128
-0.170157 -0.34197 0.868591 128 128 128
0.0358475 -0.367502 0.857538 128 128 128
0.144692 0.0387965 0.296364 128 128 128
-0.146127 0.0924816 0.392328 128 128 128
0.189656 0.0203458 0.325346 128 128 128
0.178037 0.0715835 0.276639 128 128 128
-0.167485 -0.392804 0.602587 128 128 128
-0.269561 -0.342027 0.673315 128 128 128
-0.113201 0.140489 0.798379 128 128 128
0.0154429 -0.289755 0.797035 128 128 128
0.182383 0.0406404 0.437403 128 128 128
0.125396 0.0363223 0.29149 128 128 128
0.174513 0.152464 0.252945 128 128 128
-0.63497 -0.0015399 0.800539 128 128 128
0.165814 -0.0212024 0.295916 128 128 128
-0.0685219 0.246306 0.411817 128 128 128
0.158686 0.166417 0.267983 128 128 128
0.148549 0.239133 0.414601 128 128 128
0.174865 0.073684 0.274669 128 128 128
0.18662 0.0728541 0.27539 128 128 128
0.116083 0.0699854 0.308749 128 128 128
-0.191314 0.0710562 0.330626 128 128 128
0.151758 0.0820793 0.405235 128 128 128
0.156463 0.0459091 0.359686 128 128 128
0.00602194 -0.202323 0.511693 128 128 128
0.123653 0.225888 0.390174 128 128 128
-0.0690547 0.246859 0.411989 128 128 128
-0.0371458 -0.357306 0.526396 128 128 128
-0.182024 -0.340581 0.508906 128 128 128
0.169587 -0.0211138 0.30053 128 128 128
-0.0572526 0.079517 0.191602 128 128 128
-0.148685 0.0845942 0.331303 128 128 128
0.158286 0.158432 0.258715 128 128 128
0.169548 0.148682 0.263112 128 128 128
0.197216 0.211017 0.369423 128 128 128
0.172798 0.151531 0.250214 128 128 128
0.170555 0.141148 0.249526 128 128 128
0.321496 0.22886 0.41023 128 128 128
0.148931 0.239562 0.415269 128 128 128
0.189636 0.021972 0.325328 128 128 128
0.136026 0.0211869 0.298624 128 128 128
0.390096 0.0551128 0.454891 128 128 128
0.182797 0.0720427 0.26929 128 128 128
0.115171 0.0700917 0.306313 128 128 128
0.0937617 0.0736697 0.364113 128 128 128
-0.256663 0.088809 0.479521 128 128 128
0.201307 -0.368803 0.736076 128 128 128
-0.163624 -0.332797 0.49935 128 128 128
-0.238618 0.0733148 0.436252 128 128 128
-0.154361 -0.343301 0.889081 128 128 128
0.347473 0.244214 0.413238 128 128 128
-0.0805518 0.247743 0.411373 128 128 128
-0.133301 0.082244 0.329442 128 128 128
-0.14963 0.0965117 0.406799 128 128 128
-0.179272 -0.333444 0.487944 128 128 128
-0.00720169 -0.290489 0.419458 128 128 128
-0.00434165 -0.274778 0.420364 128 128 128
0.195986 0.226638 0.35972 128 128 128
0.186409 0.161165 0.263963 128 128 128
0.146337 0.0406814 0.298908 128 128 128
0.185573 0.100001 0.310443 128 128 128
0.182166 0.072736 0.28357 128 128 128
0.105667 0.0777901 0.334835 128 128 128
-0.0820337 0.0790576 0.329061 128 128 128
-0.162571 0.0654424 0.268576 128 128 128
-0.214172 0.0649253 0.390528 128 128 128
0.0818509 -0.34106 0.500685 128 128 128
0.0767813 -0.355736 0.526756 128 128 128
0.417993 -0.341525 0.608285 128 128 128
0.185345 0.0723554 0.271973 128 128 128
0.176338 0.0731497 0.26707 128 128 128
-0.00178827 -0.254219 0.429511 128 128 128
-0.085424 0.076102 0.127126 128 128 128
0.161045 0.160627 0.262735 128 128 128
0.194642 -0.372631 0.55213 128 128 128
-0.149603 0.0974321 0.407166 128 128 128
-0.0873821 0.0758295 0.126976 128 128 128
-0.173554 -0.332028 0.502566 128 128 128
0.0952405 -0.345114 0.509096 128 128 128
-0.0440908 -0.358623 0.743376 128 128 128
-0.180425 -0.336925 0.502629 128 128 128
-0.0769992 0.236634 0.392795 128 128 128
0.638438 -0.216378 0.763079 128 128 128
0.601131 -0.224298 0.884162 128 128 128
0.39808 -0.362163 0.645742 128 128 128
0.0679469 -0.368842 0.642681 128 128 128
0.167185 -0.403282 1.33586 128 128 128
0.110339 -0.350899 0.695431 128 128 128
0.0672125 -0.362615 1.12316 128 128 128
0.102874 -0.355707 1.10446 128 128 128
0.136883 -0.352149 1.21895 128 128 128
-0.159473 -0.309495 0.941939 128 128 128
-0.116612 -0.351955 0.726398 128 128 128
-0.114919 -0.349524 0.760812 128 128 128
-0.186826 -0.325239 0.632803 128 128 128
-0.176819 -0.342723 0.665529 128 128 128
-0.50119 0.13445 0.94818 128 128 128
-0.595657 -0.0659554 0.838255 128 128 128
0.327273 0.226109 0.405585 128 128 128
-0.641596 0.129451 0.780068 128 128 128
0.470526 -0.416529 0.700456 128 128 128
-0.384847 -0.343304 0.528925 128 128 128
-0.258814 -0.355363 1.14639 128 128 128
-0.483022 -0.305781 0.969115 128 128 128
-0.27199 -0.345428 0.646512 128 128 128
-0.268033 -0.339505 0.64341 128 128 128
-0.172867 -0.333045 0.502092 128 128 128
-0.269426 -0.344875 0.846014 128 128 128
-0.385672 -0.337785 0.992367 128 128 128
-0.169877 -0.340849 0.9085 128 128 128
-0.480658 -0.329279 0.650341 128 128 128
-0.493929 -0.32559 0.575282 128 128 128
-0.278858 -0.34595 0.523704 128 128 128
-0.629573 -0.337716 0.720306 128 128 128
-0.519262 -0.315637 0.862764 128 128 128
0.599165 -0.223717 0.88103 128 128 128
0.241113 -0.287747 1.41268 128 128 128
0.222751 -0.348308 1.22163 128 128 128
0.399872 -0.363647 0.648172 128 128 128
0.385548 -0.371543 0.72883 128 128 128
0.436116 -0.313982 0.573257 128 128 128
0.432674 -0.377764 0.627716 128 128 128
0.440734 -0.358241 0.859711 128 128 128
0.0528811 -0.359283 0.64371 128 128 128
0.199864 -0.378528 0.703433 128 128 128
0.187222 -0.362227 0.59551 128 128 128
0.107812 -0.310776 0.899871 128 128 128
0.196004 -0.371343 0.87834 128 128 128
0.377256 -0.364553 0.856235 128 128 128
-0.0354152 0.113576 0.918314 128 128 128
-0.0878383 0.149803 0.766506 128 128 128
-0.111455 0.139922 0.795981 128 128 128
0.150049 0.00561356 0.321605 128 128 128
0.219368 0.064384 0.294402 128 128 128
0.175512 0.0700785 0.274298 128 128 128
0.0988496 0.0736583 0.319124 128 128 128
0.181141 -0.340923 1.10669 128 128 128
0.0116612 -0.205155 0.579599 128 128 128
-0.442436 -0.310905 1.13627 128 128 128
-0.523074 -0.32264 0.903361 128 128 128
0.408942 -0.375576 0.917857 128 128 128
0.19121 -0.375317 0.783643 128 128 128
0.0371746 -0.365255 0.774524 128 128 128
-0.470116 -0.339783 0.778562 128 128 128
-0.131991 -0.338024 1.44226 128 128 128
-0.133044 0.111494 0.887377 128 128 128
-0.129318 0.129418 1.03565 128 128 128
-0.177177 -0.346471 0.64312 128 128 128
-0.163167 -0.332886 0.647316 128 128 128
-0.387941 -0.312404 0.977775 128 128 128
-0.0291205 0.153205 0.939471 128 128 128
-0.149356 -0.0765877 1.49845 128 128 128
-0.115624 -0.0661501 1.46525 128 128 128
-0.253997 0.17002 1.14938 128 128 128
-0.21019 0.0903023 0.983815 128 128 128
0.340931 0.236707 0.425157 128 128 128
-0.151051 0.0904851 0.254747 128 128 128
-0.516326 -0.326431 0.674419 128 128 128
0.551601 -0.290938 0.744063 128 128 128
0.193016 -0.368944 0.651718 128 128 128
0.241819 0.247165 1.33996 128 128 128
-0.152873 -0.331989 0.945253 128 128 128
0.433609 -0.369896 0.941689 128 128 128
0.201392 -0.367875 1.21273 128 128 128
-0.636338 -0.341035 0.877999 128 128 128
0.11486 0.0647636 0.306057 128 128 128
-0.682205 -0.311879 0.79082 128 128 128
0.379231 -0.35429 0.86271 128 128 128
-0.645336 -0.346719 0.905535 128 128 128
-0.649062 -0.348071 0.932441 128 128 128
-0.542809 0.127483 0.925904 128 128 128
0.190143 -0.364175 0.959732 128 128 128
-0.116116 -0.352609 0.742219 128 128 128
-0.067893 0.0746598 0.329997 128 128 128
0.162752 0.143199 1.53831 128 128 128
0.419725 -0.36838 0.614905 128 128 128
0.107685 0.0753478 0.324584 128 128 128
0.0680198 0.0339735 1.74793 128 128 128
-0.116852 -0.345679 0.663694 128 128 128
-0.631326 0.149436 0.802434 128 128 128
0.19553 -0.368574 0.912123 128 128 128
-0.470224 -0.336646 0.669438 128 128 128
0.404428 -0.383068 1.13125 128 128 128
0.120285 0.22128 0.381198 128 128 128
-0.177947 0.071851 0.289096 128 128 128
-0.27293 0.0832295 0.433208 128 128 128
-0.1585 0.0654976 0.256637 128 128 128
-0.204277 0.0683315 0.286611 128 128 128
0.159702 0.166113 0.268237 128 128 128
0.160618 0.0466769 0.400482 128 128 128
0.170183 0.0645818 0.418105 128 128 128
0.188025 0.0733356 0.277936 128 128 128
0.295665 0.30759 1.72259 128 128 128
-0.222836 0.0700499 0.268901 128 128 128
-0.237658 0.0901536 0.246884 128 128 128
0.0765016 0.231836 0.395243 128 128 128
-0.203772 0.0693591 0.285514 128 128 128
0.172438 0.00574104 0.361369 128 128 128
-0.0764128 0.228812 0.36692 128 128 128
0.212273 0.0627669 0.2857 128 128 128
0.168658 0.0660535 0.287328 128 128 128
0.104396 0.0754798 0.359493 128 128 128
0.115313 0.0816402 0.306132 128 128 128
-0.147005 0.0829229 0.32699 128 128 128
-0.214033 0.062216 0.262545 128 128 128
-0.232992 0.0679444 0.244332 128 128 128
-0.147462 -0.337525 0.654767 128 128 128
-0.169317 0.0609395 0.256251 128 128 128
-0.237521 0.0906008 0.247165 128 128 128
0.160191 0.155213 0.258989 128 128 128
-0.0809935 0.0777448 0.127311 128 128 128
-0.210568 0.0633639 0.381048 128 128 128
-0.232549 0.0678832 0.243602 128 128 128
-0.215183 0.0627786 0.264037 128 128 128
0.0192355 -0.363366 0.736548 128 128 128
-0.000176688 -0.243544 0.507842 128 128 128
0.134596 0.0542924 0.347722 128 128 128
0.277071 -0.342022 0.679702 128 128 128
0.11171 -0.363375 0.654557 128 128 128
-0.259762 -0.365911 0.816064 128 128 128
-0.380466 0.151695 0.934204 128 128 128
-0.0597497 0.11603 0.88465 128 128 128
0.0630166 -0.355042 0.922631 128 128 128
-0.193571 0.0813813 0.330986 128 128 128
0.0278585 -0.34618 0.8037 128 128 128
0.171484 0.0643363 0.420515 128 128 128
0.490131 0.0563295 1.77975 128 128 128
0.0190042 -0.323413 0.938557 128 128 128
-0.232549 0.0692593 0.355662 128 128 128
-0.16186 0.0652312 0.252557 128 128 128
-0.158458 0.0627597 0.259717 128 128 128
0.107138 0.0769074 0.36581 128 128 128
-0.156911 0.0625845 0.27684 128 128 128
-0.237572 0.090904 0.247429 128 128 128
-0.0806597 0.0776079 0.126696 128 128 128
-0.0773045 0.237505 0.376078 128 128 128
0.145502 0.0650891 0.368996 128 128 128
-0.230361 0.0699595 0.352735 128 128 128
0.16355 -0.0208967 0.317289 128 128 128
0.171372 0.0609091 0.419256 128 128 128
0.141182 0.06175 0.358264 128 128 128
0.102403 0.075744 0.3517 128 128 128
0.118729 0.0830669 0.312468 128 128 128
0.149043 0.0666472 0.375992 128 128 128
0.131517 0.0321616 0.298161 128 128 128
0.128906 0.0383147 0.298783 128 128 128
0.0126611 -0.188686 0.516666 128 128 128
-0.156706 0.0605089 0.270206 128 128 128
-0.205396 0.0701123 0.288132 128 128 128
-0.216022 0.062839 0.268388 128 128 128
-0.265487 0.102623 0.27963 128 128 128
0.136016 0.0657282 0.343312 128 128 128
-0.0619123 0.0789281 0.141985 128 128 128
-0.000110016 -0.241301 0.428398 128 128 128
0.154361 0.212787 0.370286 128 128 128
-0.07916 0.0793637 0.315661 128 128 128
-0.275301 -0.354116 0.759 128 128 128
-0.253686 0.0807307 0.423436 128 128 128
-0.168533 0.0687525 0.267565 128 128 128
0.0922905 -0.355393 0.921633 128 128 128
-0.470271 -0.340275 0.750297 128 128 128
-0.274075 -0.34952 0.622314 128 128 128
0.185869 0.0723878 0.274358 128 128 128
0.0289882 -0.348446 1.01434 128 128 128
-0.171268 0.0530569 0.291309 128 128 128
0.199103 -0.37997 0.640792 128 128 128
-0.177744 -0.34893 0.64958 128 128 128
-0.272672 -0.346378 0.557368 128 128 128
0.113127 -0.368713 0.661029 128 128 128
0.204774 -0.391923 0.618099 128 128 128
0.0394878 -0.36757 0.748833 128 128 128
-0.175408 0.158187 0.802337 128 128 128
-0.0616268 0.131133 0.876546 128 128 128
-0.371423 -0.341052 1.1294 128 128 128
-0.0456023 -0.360235 0.744036 128 128 128
0.216837 0.0646263 0.291053 128 128 128
0.0401113 -0.364007 0.663923 128 128 128
-0.0999583 0.157269 0.797893 128 128 128
-0.172778 0.115648 0.859559 128 128 128
0.186797 0.334015 0.499979 128 128 128
-0.0832308 -0.350767 0.666185 128 128 128
0.162486 0.157376 0.262212 128 128 128
-0.0458548 -0.357392 0.521571 128 128 128
0.108319 -0.364789 0.656527 128 128 128
0.0166322 -0.358466 0.746713 128 128 128
-0.165303 0.0753717 0.247987 128 128 128
0.0722131 -0.365758 0.541879 128 128 128
0.197117 -0.375743 0.598447 128 128 128
-0.164942 0.0707836 0.278282 128 128 128
-0.184243 -0.344405 0.73859 128 128 128
-0.164756 0.0845637 0.247759 128 128 128
-0.172284 0.121769 0.86094 128 128 128
-0.230499 0.142253 0.820895 128 128 128
0.0610596 -0.351426 0.517912 128 128 128
0.103057 0.0776523 0.369207 128 128 128
-0.0031803 -0.291628 0.4265 128 128 128
-0.392891 -0.339173 0.738703 128 128 128
-0.0988994 0.0759659 0.127625 128 128 128
-0.180457 -0.315993 0.554397 128 128 128
-0.248444 0.076858 0.167193 128 128 128
-0.23381 0.184678 0.258438 128 128 128
-0.576696 0.0816043 0.289125 128 128 128
-0.544505 0.119446 0.305903 128 128 128
-0.240162 0.154176 0.257103 128 128 128
-0.534564 0.091828 0.291966 128 128 128
-0.58296 0.0827874 0.294961 128 128 128
-0.238131 0.187402 0.409645 128 128 128
-0.23108 0.22423 0.429623 128 128 128
-0.574183 0.127496 0.319434 128 128 128
0.348256 -0.111867 1.71679 128 128 128
0.311661 0.0722592 1.70488 128 128 128
0.573457 -0.0934992 1.26409 128 128 128
-0.171573 0.097467 0.23448 128 128 128
-0.381547 -0.325381 0.95551 128 128 128
-0.516941 -0.320704 0.908962 128 128 128
-0.529584 -0.3134 0.710057 128 128 128
-0.461821 -0.316556 0.680801 128 128 128
0.324621 -0.29277 0.524451 128 128 128
-0.0495043 -0.357018 0.728665 128 128 128
-0.642692 0.00922429 0.761587 128 128 128
-0.653009 0.0464545 0.776407 128 128 128
-0.396751 -0.307772 0.989251 128 128 128
0.575575 -0.376653 1.27967 128 128 128
-0.641634 0.0821633 0.976132 128 128 128
-0.0972035 0.116602 0.869407 128 128 128
0.42354 -0.357159 0.637331 128 128 128
0.497029 -0.381334 1.03431 128 128 128
0.444033 -0.32548 1.02529 128 128 128
0.0674138 -0.352192 0.929687 128 128 128
-0.159807 0.0909126 0.86126 128 128 128
-0.177625 -0.342128 0.662758 128 128 128
0.60722 -0.227001 0.889839 128 128 128
0.318461 -0.380967 0.752694 128 128 128
0.175414 0.0935211 0.295691 128 128 128
-0.472499 -0.342116 0.690431 128 128 128
-0.397276 -0.357494 0.550704 128 128 128
-0.276427 -0.352754 0.600027 128 128 128
-0.629558 0.128759 0.955408 128 128 128
0.0903027 -0.368455 1.09026 128 128 128
-0.157578 0.0615849 0.273643 128 128 128
0.334172 -0.373519 0.901806 128 128 128
0.449423 -0.368961 1.09099 128 128 128
-0.0948321 0.043953 1.5179 128 128 128
-0.400211 -0.298478 0.932678 128 128 128
-0.133101 0.112669 0.888895 128 128 128
0.340297 -0.052015 0.771345 128 128 128
-0.0355841 0.11064 0.897499 128 128 128
-0.52078 -0.324792 1.10627 128 128 128
0.0965999 -0.355939 0.895624 128 128 128
-0.629755 -0.338632 0.776267 128 128 128
-0.115074 -0.362094 0.866841 128 128 128
-0.194914 -0.347113 0.762793 128 128 128
-0.452048 -0.314257 0.706492 128 128 128
0.448641 -0.346765 0.898084 128 128 128
0.416409 -0.369792 0.867701 128 128 128
0.289595 -0.364278 0.747156 128 128 128
0.328776 -0.325586 0.767806 128 128 128
0.102931 -0.353278 0.72232 128 128 128
-0.473386 -0.345244 0.874314 128 128 128
-0.487223 -0.320846 0.866725 128 128 128
-0.384338 -0.348373 0.753283 128 128 128
-0.378488 -0.331433 0.728621 128 128 128
-0.662386 -0.132134 0.777449 128 128 128
0.457943 -0.371615 0.653448 128 128 128
0.215519 -0.384631 0.760377 128 128 128
0.435321 -0.359471 0.641216 128 128 128
0.376431 -0.386709 0.765168 128 128 128
0.381375 -0.371069 0.725377 128 128 128
-0.0481161 -0.372434 0.957181 128 128 128
-0.263424 -0.331465 0.719186 128 128 128
-0.385913 -0.336205 0.923901 128 128 128
-0.591219 -0.313559 0.812789 128 128 128
-0.656512 -0.322719 0.944666 128 128 128
-0.490991 -0.324395 0.572586 128 128 128
-0.527982 -0.330392 0.652838 128 128 128
0.156941 0.230961 0.401247 128 128 128
-0.0839752 -0.351216 0.665754 128 128 128
0.0698406 -0.34948 1.3036 128 128 128
-0.418145 -0.305056 1.06171 128 128 128
0.430021 -0.409193 1.21549 128 128 128
0.141933 -0.326536 1.4022 128 128 128
-0.0986236 0.120419 0.964747 128 128 128
-0.137525 -0.354125 0.658573 128 128 128
-0.136558 -0.34596 0.676827 128 128 128
-0.174273 0.100221 0.856516 128 128 128
-0.402993 -0.329091 0.905217 128 128 128
-0.569073 -0.297881 1.06232 128 128 128
-0.694927 -0.347494 1.29748 128 128 128
-0.533294 -0.334178 0.686425 128 128 128
0.588707 -0.201466 0.672106 128 128 128
0.599946 -0.211594 0.860294 128 128 128
0.635159 -0.188744 0.860574 128 128 128
0.080572 -0.409948 0.719245 128 128 128
0.0834538 -0.363904 0.635459 128 128 128
-0.0307479 -0.36087 0.737969 128 128 128
-0.264147 -0.350053 0.770059 128 128 128
-0.485029 -0.328496 1.1307 128 128 128
-0.260837 -0.33065 0.566247 128 128 128
-0.383111 -0.287911 0.912307 128 128 128
-0.140063 -0.35996 1.20994 128 128 128
-0.0792996 -0.23245 1.42525 128 128 128
-0.513149 -0.312761 0.91312 128 128 128
-0.66559 -0.0737384 0.941901 128 128 128
-0.638112 -0.124585 0.912948 128 128 128
-0.189635 -0.356551 0.772448 128 128 128
-0.487468 -0.336703 0.654019 128 128 128
-0.393789 -0.339176 0.511828 128 128 128
-0.578632 -0.304983 0.793675 128 128 128
-0.623238 -0.333319 0.765357 128 128 128
-0.521363 -0.312947 0.710993 128 128 128
-0.470044 -0.34199 0.872997 128 128 128
0.598293 -0.176984 0.871929 128 128 128
0.570721 -0.226643 0.838179 128 128 128
0.632949 -0.18983 0.724694 128 128 128
0.296172 -0.360895 0.637701 128 128 128
0.374929 -0.366244 0.735964 128 128 128
0.20305 -0.376311 1.02753 128 128 128
0.143593 -0.382104 0.778242 128 128 128
0.299274 -0.364669 0.902461 128 128 128
-0.0359699 0.11442 0.915891 128 128 128
-0.131465 0.114114 0.878549 128 128 128
-0.656166 0.00943049 0.780826 128 128 128
-0.498492 0.126338 0.916318 128 128 128
0.446385 0.071593 0.518574 128 128 128
0.175276 0.0702291 0.298378 128 128 128
0.134886 0.155397 1.0953 128 128 128
0.0961704 0.0724671 0.310295 128 128 128
0.0726252 -0.358305 1.49269 128 128 128
0.368345 -0.341623 0.864041 128 128 128
0.35369 -0.315596 0.794617 128 128 128
-0.152849 0.0987215 1.12691 128 128 128
-0.645895 -0.345086 1.3004 128 128 128
0.446451 -0.37168 1.07308 128 128 128
0.328209 -0.266494 0.751315 128 128 128
0.104442 -0.353956 1.10809 128 128 128
-0.0888308 0.122601 0.877267 128 128 128
-0.0738362 0.0577418 0.283784 128 128 128
-0.605063 -0.321763 0.770646 128 128 128
-0.645597 -0.316854 0.788764 128 128 128
-0.633986 -0.310593 0.807024 128 128 128
0.306109 -0.369751 0.744879 128 128 128
-0.64931 -0.320784 0.961948 128 128 128
0.40738 -0.377355 0.643191 128 128 128
0.397873 -0.379507 1.20321 128 128 128
-0.0655682 0.0927136 1.30309 128 128 128
-0.0318987 0.150549 0.911845 128 128 128
-0.110483 0.103896 1.14632 128 128 128
-0.0919708 0.114974 0.929046 128 128 128
-0.452635 -0.333103 1.24536 128 128 128
-0.393831 -0.340041 0.761265 128 128 128
0.460861 -0.318404 0.91393 128 128 128
0.272131 0.00235571 1.74217 128 128 128
0.0945456 -0.36058 0.640255 128 128 128
0.0644237 -0.35261 0.878104 128 128 128
-0.162933 0.0378298 1.02923 128 128 128
-0.474253 -0.31432 0.911155 128 128 128
-0.488609 -0.32422 0.879833 128 128 128
-0.444885 -0.326317 0.747539 128 128 128
0.326565 -0.39583 0.975133 128 128 128
0.058659 -0.357521 0.669629 128 128 128
0.0846982 -0.360919 1.65699 128 128 128
-0.205418 -0.359986 0.811414 128 128 128
-0.435356 -0.277837 0.918032 128 128 128
0.606551 -0.440368 0.802229 128 128 128
0.602953 -0.227793 0.887602 128 128 128
-0.108031 -0.353674 0.821005 128 128 128
-0.60387 0.10114 0.95303 128 128 128
-0.658576 -0.116405 0.931364 128 128 128
-0.660366 -0.0731449 0.927105 128 128 128
-0.652831 -0.285065 0.935138 128 128 128
0.0670026 -0.353974 0.861776 128 128 128
0.0775983 0.236881 0.402578 128 128 128
0.53803 -0.388749 0.708655 128 128 128
0.116804 0.0841907 0.312373 128 128 128
-0.15859 0.0653025 0.255515 128 128 128
0.177391 0.0417841 0.439798 128 128 128
0.605155 -0.00034661 1.20469 128 128 128
-0.18836 0.0647496 0.247793 128 128 128
-0.0279088 -0.179756 0.376482 128 128 128
-0.222796 0.068775 0.267713 128 128 128
-0.121258 0.138313 0.784652 128 128 128
0.216911 0.0500419 0.524099 128 128 128
0.46976 -0.386053 0.677656 128 128 128
0.149768 0.135634 1.33626 128 128 128
0.136002 0.150033 1.0886 128 128 128
-0.08153 -0.223177 1.42829 128 128 128
-0.0521219 -0.316915 0.814777 128 128 128
-0.656627 0.0445872 0.780544 128 128 128
0.390543 -0.382194 1.28111 128 128 128
-0.485914 -0.317799 0.849184 128 128 128
-0.485582 -0.300609 0.808119 128 128 128
0.42688 -0.375286 0.879029 128 128 128
0.459369 -0.312879 1.08865 128 128 128
0.185437 -0.358991 0.722075 128 128 128
0.025921 -0.321468 1.1513 128 128 128
-0.118597 0.0225471 0.746257 128 128 128
-0.242878 0.0501621 1.50574 128 128 128
0.631215 0.0312559 0.87739 128 128 128
0.0794978 0.235296 0.401804 128 128 128
0.195884 -0.375391 0.596589 128 128 128
0.512185 -0.36836 0.670829 128 128 128
-0.634967 0.129025 0.966596 128 128 128
-0.225814 0.134366 0.967644 128 128 128
0.472585 -0.363007 0.936797 128 128 128
0.468334 -0.326783 0.923148 128 128 128
0.10619 -0.359732 0.736173 128 128 128
0.0372504 -0.368283 1.07031 128 128 128
-0.137592 -0.341258 0.862867 128 128 128
0.613517 -0.217434 0.812732 128 128 128
-0.118802 -0.367905 0.707491 128 128 128
0.662652 -0.219161 0.792501 128 128 128
0.197611 -0.377405 0.67395 128 128 128
-0.169531 -0.353753 0.634977 128 128 128
-0.46481 -0.33816 0.779487 128 128 128
0.476567 -0.411579 0.674513 128 128 128
0.331106 -0.339464 0.937064 128 128 128
-0.112337 -0.347792 0.764583 128 128 128
0.380343 -0.400254 0.788836 128 128 128
0.677411 -0.201699 0.909294 128 128 128
-0.0792785 0.149248 0.902035 128 128 128
-0.502025 -0.307258 0.856757 128 128 128
-0.64506 0.0618251 0.943723 128 128 128
0.411998 -0.367742 0.865999 128 128 128
0.309564 -0.368603 0.999827 128 128 128
-0.155207 0.095069 1.1572 128 128 128
-0.22986 0.104306 0.932641 128 128 128
-0.177008 -0.345986 0.64222 128 128 128
-0.269767 -0.346029 0.822618 128 128 128
-0.265402 -0.340098 0.875656 128 128 128
0.0972221 0.207465 1.09934 128 128 128
-0.375847 -0.345847 1.14651 128 128 128
-0.260721 -0.335882 1.19079 128 128 128
-0.0374671 -0.359519 0.523738 128 128 128
-0.266461 -0.341464 0.88183 128 128 128
0.60819 -0.140378 0.722462 128 128 128
0.385099 -0.372649 0.658602 128 128 128
0.401366 -0.365109 0.648753 128 128 128
0.432264 -0.383036 0.560954 128 128 128
0.0820624 -0.366139 0.642349 128 128 128
0.339393 -0.373979 0.910535 128 128 128
0.308224 -0.377946 0.766756 128 128 128
-0.0432785 0.175735 0.91047 128 128 128
0.598915 0.0375063 0.701995 128 128 128
0.621417 0.0144596 0.866615 128 128 128
0.183014 0.0727744 0.285383 128 128 128
0.0872399 0.182787 1.1015 128 128 128
-0.168074 0.0625966 0.286654 128 128 128
-0.195616 0.099409 0.904844 128 128 128
-0.381336 -0.323381 0.933487 128 128 128
-0.384967 -0.340617 1.02059 128 128 128
-0.344905 -0.305756 0.940766 128 128 128
0.0725926 -0.306565 0.911958 128 128 128
0.0827379 -0.321911 1.01489 128 128 128
-0.180055 0.161684 0.913195 128 128 128
-0.635473 -0.338899 0.759289 128 128 128
-0.743931 -0.327798 0.873525 128 128 128
0.0682612 -0.349669 0.651906 128 128 128
-0.159026 0.0910366 0.897054 128 128 128
0.314094 -0.372937 1.01161 128 128 128
-0.672688 -0.314349 0.78446 128 128 128
0.0460528 -0.357051 1.2504 128 128 128
-0.641526 -0.318252 1.24604 128 128 128
-0.624026 -0.332542 1.00804 128 128 128
-0.536889 -0.319349 0.735692 128 128 128
-0.527704 -0.331001 0.650567 128 128 128
-0.510755 -0.332633 0.642944 128 128 128
0.283105 -0.199689 0.704262 128 128 128
0.19084 -0.361972 0.833004 128 128 128
0.199897 -0.371368 1.02055 128 128 128
0.189316 -0.368908 1.11483 128 128 128
-0.100677 0.121471 0.807977 128 128 128
-0.193775 0.0404151 1.25906 128 128 128
-0.53372 -0.370557 0.972828 128 128 128
0.43124 0.110248 0.490657 128 128 128
0.422257 -0.35423 0.632936 128 128 128
0.190174 -0.364746 0.618744 128 128 128
0.195286 -0.369609 0.820684 128 128 128
0.0538097 -0.361874 0.646557 128 128 128
-0.0425631 0.112003 0.909769 128 128 128
-0.469853 -0.33702 0.769213 128 128 128
0.62837 -0.214175 0.715325 128 128 128
0.319287 -0.375522 0.737507 128 128 128
-0.111169 0.141841 0.814474 128 128 128
-0.276348 -0.357419 0.880781 128 128 128
-0.381161 -0.341906 0.766352 128 128 128
-0.372409 -0.323366 0.675381 128 128 128
0.0372667 -0.345644 1.47794 128 128 128
0.105265 -0.380812 1.53465 128 128 128
-0.0743711 -0.0105559 1.52315 128 128 128
0.0262691 -0.363616 0.723419 128 128 128
0.436014 -0.359034 0.868237 128 128 128
0.450803 -0.319714 0.889956 128 128 128
0.0675104 -0.357183 0.88059 128 128 128
-0.132408 0.104408 0.866074 128 128 128
-0.265985 -0.338685 0.838439 128 128 128
-0.576515 -0.319676 1.10547 128 128 128
-0.0722158 -0.304582 1.44751 128 128 128
-0.137421 -0.342303 0.85999 128 128 128
-0.473039 -0.349385 0.752978 128 128 128
-0.454591 -0.310351 0.76322 128 128 128
0.430886 -0.36327 1.06134 128 128 128
0.204775 -0.382962 1.02129 128 128 128
0.138076 -0.352898 1.22344 128 128 128
0.114209 -0.0818395 1.49065 128 128 128
-0.628206 -0.338494 0.766817 128 128 128
0.38032 -0.378901 0.728169 128 128 128
0.120435 -0.346848 0.816107 128 128 128
0.0882148 -0.343473 0.845679 128 128 128
-0.494746 -0.341694 0.914286 128 128 128
-0.4726 -0.300928 0.955033 128 128 128
0.592059 -0.342362 1.11374 128 128 128
0.409408 -0.342206 0.596392 128 128 128
0.488754 -0.50403 1.39554 128 128 128
0.091362 -0.327688 0.667742 128 128 128
-0.127878 -0.354564 0.751895 128 128 128
-0.605408 0.120259 1.27789 128 128 128
-0.496038 -0.341261 0.667969 128 128 128
-0.494825 -0.331026 0.682233 128 128 128
0.108126 -0.362264 1.0299 128 128 128
0.166399 -0.34804 1.02045 128 128 128
-0.177343 -0.342622 0.661647 128 128 128
-0.189 -0.348923 0.73933 128 128 128
0.699246 -0.210799 0.942352 128 128 128
0.410397 -0.377914 0.659495 128 128 128
0.417919 -0.390395 0.742472 128 128 128
0.143367 -0.364461 0.740378 128 128 128
0.0805761 -0.358189 1.40432 128 128 128
-0.16439 -0.319757 0.954071 128 128 128
0.616494 -0.048997 1.10904 128 128 128
-0.105299 0.0764714 0.127793 128 128 128
-0.34649 -0.0235188 0.0990478 128 128 128
-0.381192 0.218795 0.827181 128 128 128
-0.532597 0.14197 1.27767 128 128 128
-0.220104 0.14404 0.837041 128 128 128
0.789107 -1.61636 3.93714 128 128 128
-0.469489 -0.334393 0.664981 128 128 128
-0.218388 0.291758 0.421769 128 128 128
-0.23474 0.26468 0.380353 128 128 128
-0.538262 0.124747 0.30355 128 128 128
-0.660872 0.172206 0.328688 128 128 128
-0.553059 0.165634 0.306214 128 128 128
-0.241301 0.126456 0.25993 128 128 128
-0.242709 0.0805895 0.257789 128 128 128
-0.24174 0.0614911 0.155838 128 128 128
0.662891 0.00782762 1.54868 128 128 128
-0.164964 0.0673149 0.343539 128 128 128
0.46461 -0.365101 0.994757 128 128 128
0.187074 -0.366876 0.757612 128 128 128
-0.455057 0.163883 0.427774 128 128 128
0.446988 -0.368902 1.08697 128 128 128
0.120234 0.469614 1.45465 128 128 128
0.274012 0.072066 1.72104 128 128 128
0.573611 -0.0545513 1.26868 128 128 128
0.417027 -0.375788 0.633371 128 128 128
-0.550199 -0.105482 0.630771 128 128 128
-0.614012 -0.326487 0.647899 128 128 128
-0.550434 -0.344562 0.545125 128 128 128
-0.637974 -0.310683 0.64167 128 128 128
0.467149 -0.371831 1.0947 128 128 128
-0.476393 0.139781 0.524901 128 128 128
-0.474758 0.114958 0.473455 128 128 128
-0.447092 -0.348829 1.25681 128 128 128
-0.507842 -0.296756 1.08682 128 128 128
0.20119 0.0107879 0.41486 128 128 128
0.590642 -0.0595282 1.22765 128 128 128
0.576457 -0.385641 0.75619 128 128 128
-0.484311 0.118491 0.48515 128 128 128
-0.150765 -0.31374 0.964873 128 128 128
0.0391618 -0.361818 0.745041 128 128 128
-0.563236 0.103463 1.27953 128 128 128
0.129535 0.0326411 0.296171 128 128 128
-0.249291 0.116952 1.16475 128 128 128
-0.617861 -0.328044 0.630303 128 128 128
-0.124132 0.0292936 0.805107 128 128 128
-0.652714 -0.352531 0.960777 128 128 128
-0.556003 -0.358324 0.567774 128 128 128
0.363303 -0.37698 0.655518 128 128 128
0.469977 0.127342 1.06287 128 128 128
-0.635224 -0.0204928 0.631223 128 128 128
-0.114915 -0.355503 0.862666 128 128 128
-0.671694 -0.331276 0.66628 128 128 128
-0.454701 0.12808 0.681856 128 128 128
-0.162256 -0.359742 1.15104 128 128 128
-0.517553 0.136935 1.40661 128 128 128
-0.145538 0.0876478 0.415152 128 128 128
0.468908 -0.369863 1.72758 128 128 128
0.407241 0.0704606 1.72235 128 128 128
0.110091 0.0150761 1.49821 128 128 128
-0.139341 0.103217 1.36465 128 128 128
-0.625789 -0.344 1.90505 128 128 128
-0.68561 -0.0970554 0.959639 128 128 128
0.0862727 -0.347179 0.866709 128 128 128
-0.0223203 -0.36353 1.86715 128 128 128
-0.400261 -0.0481589 1.84827 128 128 128
-0.440212 -0.0580829 1.80077 128 128 128
-0.638349 0.0772079 1.68981 128 128 128
-0.161964 0.0655004 0.252457 128 128 128
-0.657525 -0.322193 0.939121 128 128 128
-0.63752 -0.327626 0.952484 128 128 128
0.597547 -0.209406 0.854063 128 128 128
0.324932 -0.392673 0.606729 128 128 128
0.321501 -0.380581 0.614435 128 128 128
0.20536 -0.364735 1.66328 128 128 128
0.12184 -0.0383936 1.45981 128 128 128
0.104438 -0.0269198 1.50377 128 128 128
-0.386084 -0.345855 1.40264 128 128 128
-0.452652 0.159506 1.35121 128 128 128
-0.596354 -0.0436932 1.78309 128 128 128
-0.563283 -0.0311124 1.86042 128 128 128
0.600822 -0.217043 0.828478 128 128 128
0.582269 -0.348739 1.15616 128 128 128
0.586445 -0.125942 1.73928 128 128 128
0.439651 0.0283301 1.68998 128 128 128
0.398225 -0.115792 1.7266 128 128 128
0.306603 -0.110035 1.71104 128 128 128
-0.0766971 -0.188554 1.42657 128 128 128
-0.0735065 -0.1045 1.43458 128 128 128
-0.15023 -0.0750873 1.4838 128 128 128
-0.468443 0.530966 1.69752 128 128 128
-0.414614 0.468296 1.36814 128 128 128
0.671155 0.0710441 0.872628 128 128 128
0.432821 -0.382646 0.583418 128 128 128
0.413905 -0.358703 0.64192 128 128 128
0.606364 -0.202907 1.16928 128 128 128
-0.663664 -0.150268 0.782657 128 128 128
-0.660352 -0.0479842 0.727639 128 128 128
-0.384596 -0.34085 0.514186 128 128 128
0.607705 -0.174526 0.886822 128 128 128
0.604041 -0.318365 0.92352 128 128 128
0.107072 0.0938646 0.231714 128 128 128
-0.520691 -0.330362 1.5191 128 128 128
-0.094593 0.113404 1.04082 128 128 128
-0.633155 0.154762 1.68532 128 128 128
-0.624612 -0.333428 0.968444 128 128 128
-0.639248 0.113713 0.967791 128 128 128
0.332107 -0.385419 1.56147 128 128 128
-0.486735 0.0104729 1.75366 128 128 128
0.602187 -0.386762 1.67165 128 128 128
0.0738998 0.107734 1.72631 128 128 128
-0.615781 -0.328493 0.824793 128 128 128
0.473317 -0.401171 1.68076 128 128 128
-0.104662 -0.357218 1.54123 128 128 128
-0.621936 -0.305257 1.17203 128 128 128
-0.618578 -0.327988 1.20822 128 128 128
-0.603631 -0.29522 0.785215 128 128 128
0.19999 0.133858 1.78249 128 128 128
-0.249597 -0.351317 1.67873 128 128 128
-0.454331 0.112774 1.70851 128 128 128
-0.525434 0.193729 1.7793 128 128 128
-0.377916 -0.352068 1.90185 128 128 128
-0.663156 -0.328336 1.10691 128 128 128
-0.653393 -0.323935 1.14333 128 128 128
-0.639483 -0.0980856 0.887917 128 128 128
0.436762 -0.117015 1.7036 128 128 128
-0.608269 -0.323575 0.677863 128 128 128
0.59855 -0.321617 1.17456 128 128 128
-0.0908658 -0.0869519 1.44412 128 128 128
-0.645783 0.00934956 1.59037 128 128 128
-0.52651 -0.348349 1.01388 128 128 128
0.232706 0.117481 1.74035 128 128 128
0.209331 -0.375145 1.54382 128 128 128
0.116433 0.513353 1.6986 128 128 128
-0.449929 0.551714 1.75518 128 128 128
0.256941 0.0110859 1.686 128 128 128
0.239063 0.0501403 1.76586 128 128 128
0.612185 0.0165259 0.716649 128 128 128
0.172537 0.051774 0.297082 128 128 128
0.399487 -0.400412 1.12563 128 128 128
0.530885 0.0237665 1.7036 128 128 128
0.584482 0.0215174 1.70895 128 128 128
0.516223 0.496118 1.74927 128 128 128
-0.663916 -0.0632314 1.06355 128 128 128
-0.657861 -0.0726807 0.913863 128 128 128
-0.664767 -0.0750608 0.949954 128 128 128
0.436629 0.239208 1.72652 128 128 128
-0.276334 -0.345168 0.736413 128 128 128
-0.268783 -0.334156 0.731262 128 128 128
0.473391 -0.334329 0.617934 128 128 128
0.606633 -0.221123 1.17173 128 128 128
0.687021 0.0499963 1.67754 128 128 128
0.529022 -0.0508547 1.70935 128 128 128
-0.0915337 -0.34676 0.734331 128 128 128
-0.150436 -0.373302 1.17606 128 128 128
-0.394398 -0.341279 0.525455 128 128 128
0.56976 -0.093129 1.29556 128 128 128
-0.0797784 -0.0168322 1.46625 128 128 128
-0.402004 -0.260712 1.79884 128 128 128
0.101892 -0.319505 0.622981 128 128 128
-0.175322 0.0797549 0.77821 128 128 128
-0.127582 0.0925765 0.824798 128 128 128
-0.0898 -0.392136 0.826111 128 128 128
-0.136378 -0.0756382 1.52349 128 128 128
-0.0527005 -0.25134 1.53444 128 128 128
-0.165819 -0.344009 0.927298 128 128 128
-0.104835 -0.0987503 1.45397 128 128 128
0.302736 -0.348418 0.830813 128 128 128
-0.635888 -0.123644 0.791822 128 128 128
0.119285 -0.354205 0.756354 128 128 128
-0.216756 -0.370756 1.79481 128 128 128
-0.356039 -0.303407 1.2498 128 128 128
0.464508 -0.378307 1.6009 128 128 128
0.0856986 -0.366969 1.3298 128 128 128
-0.204086 0.114994 0.757988 128 128 128
0.297858 0.0620023 1.73632 128 128 128
-0.460087 -0.301418 0.535156 128 128 128
-0.3895 -0.299224 0.961626 128 128 128
0.402988 0.0589985 1.79835 128 128 128
-0.498587 -0.337672 1.49859 128 128 128
-0.501432 -0.319991 1.36001 128 128 128
0.638443 -0.227196 0.815711 128 128 128
0.142297 0.79765 1.34827 128 128 128
0.329681 -0.396312 0.796579 128 128 128
-0.67229 -0.29991 0.781899 128 128 128
-0.663559 0.0172944 1.63322 128 128 128
0.375122 -0.345171 1.22571 128 128 128
-0.117628 0.0658306 0.836227 128 128 128
-0.523759 -0.277057 0.594131 128 128 128
-0.667297 -0.330773 0.760218 128 128 128
0.588518 -0.166373 0.707948 128 128 128
-0.185289 -0.346592 0.740756 128 128 128
-0.527917 -0.325357 0.660435 128 128 128
-0.659226 -0.138423 0.760791 128 128 128
0.440225 -0.375957 1.71664 128 128 128
-0.613846 -0.326014 0.738702 128 128 128
0.456918 -0.327906 1.11941 128 128 128
-0.584205 0.00505224 1.76556 128 128 128
0.458371 -0.382458 1.73335 128 128 128
-0.412566 0.0579599 1.85901 128 128 128
-0.412748 -0.342261 0.925826 128 128 128
0.473965 -0.372471 1.35398 128 128 128
-0.646743 -0.295303 1.45864 128 128 128
0.381303 -0.33396 0.854714 128 128 128
-0.137927 -0.335474 1.59953 128 128 128
-0.240286 0.0287229 1.45189 128 128 128
0.140266 0.155136 1.11694 128 128 128
-0.592136 0.127984 0.69606 128 128 128
0.295209 -0.336134 0.938432 128 128 128
-0.270072 -0.339552 0.694664 128 128 128
-0.64993 -0.280941 1.3741 128 128 128
-0.258901 -0.32748 0.852785 128 128 128
0.0850693 -0.357283 1.69999 128 128 128
0.596669 -0.338634 1.37093 128 128 128
0.578636 -0.353481 1.16274 128 128 128
0.134422 -0.36897 1.51624 128 128 128
-0.661438 0.0897304 1.05238 128 128 128
-0.262716 -0.391947 1.69359 128 128 128
0.805026 0.0111994 1.06052 128 128 128
0.142045 0.861715 1.33792 128 128 128
-0.396286 -0.341144 0.526298 128 128 128
-0.288502 -0.357306 1.54879 128 128 128
-0.284772 -0.367272 0.7647 128 128 128
-0.501593 -0.33051 0.603794 128 128 128
-0.466233 -0.306192 0.516353 128 128 128
-0.463292 -0.318408 0.78439 128 128 128
0.268331 -0.324684 1.23442 128 128 128
0.630225 -0.09767 1.38536 128 128 128
0.0954165 -0.347833 0.86137 128 128 128
0.303749 -0.370251 0.731582 128 128 128
-0.252277 0.0774063 1.14234 128 128 128
0.515957 0.18647 1.45875 128 128 128
0.00250946 -0.150905 0.418751 128 128 128
0.592183 -0.224491 0.817157 128 128 128
0.118256 0.517235 1.6925 128 128 128
-0.128462 -0.341328 1.58929 128 128 128
-0.475622 -0.351619 1.17228 128 128 128
-0.713589 0.0629955 1.53783 128 128 128
-0.602335 0.100847 0.963192 128 128 128
0.631287 -0.224543 0.812233 128 128 128
-0.0626851 0.0817483 1.34815 128 128 128
-0.459522 0.0522789 1.71234 128 128 128
0.18942 -0.364303 0.681674 128 128 128
0.442206 -0.365186 1.09676 128 128 128
-0.634305 -0.123763 0.797982 128 128 128
-0.231107 0.221069 0.447694 128 128 128
-0.215164 0.0633389 0.272546 128 128 128
-0.151598 0.0873218 0.247926 128 128 128
-0.280026 0.250516 0.824672 128 128 128
-0.0463893 0.0428805 1.5149 128 128 128
-0.280035 0.253587 0.833179 128 128 128
-0.65845 -0.0338274 0.472654 128 128 128
-0.54013 0.0991995 0.310533 128 128 128
-0.117687 -0.353497 0.761922 128 128 128
0.197219 -0.37731 0.576578 128 128 128
-0.0828867 0.0800832 0.329093 128 128 128
-0.266207 -0.337923 0.620309 128 128 128
-0.0827214 0.0806239 0.325939 128 128 128
-0.468259 -0.33382 0.745803 128 128 128
-0.156857 -0.301985 0.931738 128 128 128
0.358847 -0.385196 1.31817 128 128 128
0.374406 -0.3644 1.22871 128 128 128
0.304596 0.0663317 1.69721 128 128 128
-0.195574 -0.349102 0.726292 128 128 128
-0.657774 -0.116035 0.932584 128 128 128
0.603911 -0.236481 1.44127 128 128 128
0.486732 0.0581488 1.69725 128 128 128
0.449094 -0.04427 1.72275 128 128 128
-0.102753 0.626236 2.04217 128 128 128
-0.632582 -0.310269 0.859285 128 128 128
0.658549 -0.410226 1.72141 128 128 128
0.482087 0.50778 1.73016 128 128 128
0.520622 0.515105 1.611 128 128 128
-0.662234 -0.289425 1.13399 128 128 128
0.109847 -0.026989 1.65659 128 128 128
-0.0803819 -0.229786 1.43148 128 128 128
-0.151806 -0.362521 1.43585 128 128 128
0.406558 -0.375416 0.650464 128 128 128
0.322289 -0.348382 1.54314 128 128 128
0.252426 0.258105 1.43089 128 128 128
0.172486 0.579 1.78492 128 128 128
0.0749274 -0.370377 1.53315 128 128 128
-0.551836 -0.0429457 2.23175 128 128 128
-0.570949 0.122009 1.37815 128 128 128
0.789461 -0.271676 1.08089 128 128 128
0.209119 -0.397005 0.849058 128 128 128
0.386213 -0.0433006 1.70742 128 128 128
0.0641004 -0.353839 0.872144 128 128 128
0.109259 -0.363777 1.5076 128 128 128
0.0615435 0.097019 1.69276 128 128 128
0.0852522 0.124449 1.67836 128 128 128
-0.590036 0.107376 0.960065 128 128 128
-0.220033 -0.32933 1.57463 128 128 128
0.43987 0.235757 1.74233 128 128 128
-0.479884 -0.323508 1.30588 128 128 128
-0.455137 -0.337659 1.28794 128 128 128
-0.186888 -0.34907 1.51001 128 128 128
-0.351949 -0.3471 1.73203 128 128 128
-0.389298 -0.053996 1.80593 128 128 128
-0.640581 -0.316728 1.06966 128 128 128
-0.38299 -0.345926 0.779248 128 128 128
0.214494 -0.387107 1.52415 128 128 128
0.675503 -0.00568488 1.64651 128 128 128
0.647811 -0.182791 1.74185 128 128 128
-0.528589 0.0524921 1.30271 128 128 128
0.476289 0.504797 1.71971 128 128 128
0.493751 0.494049 1.52545 128 128 128
0.0817394 -0.365408 1.02284 128 128 128
0.2977 -0.107302 1.69312 128 128 128
0.293105 -0.0718975 1.65887 128 128 128
-0.0771177 0.0784301 0.324101 128 128 128
-0.510247 0.137238 1.24157 128 128 128
0.58216 -0.379066 1.14671 128 128 128
0.104812 -0.355969 1.10936 128 128 128
0.117736 0.525285 1.59571 128 128 128
-0.0917758 -0.363113 1.69708 128 128 128
-0.483544 -0.326032 1.68913 128 128 128
-0.414261 -0.358367 1.74988 128 128 128
-0.445064 0.143977 1.38598 128 128 128
-0.512364 -0.330485 1.49739 128 128 128
-0.39917 -0.30173 0.945204 128 128 128
-0.646056 0.0145994 1.58807 128 128 128
-0.592824 0.111986 0.960574 128 128 128
0.438643 -0.114573 1.69944 128 128 128
0.22415 0.0356509 1.75848 128 128 128
0.217134 0.0504871 1.72894 128 128 128
-0.127537 -0.341045 1.67037 128 128 128
-0.430742 0.00524411 1.78101 128 128 128
-0.593189 0.0714592 1.6739 128 128 128
-0.641717 -0.317318 1.1281 128 128 128
0.527973 -0.119758 1.70327 128 128 128
0.531761 -0.114132 1.6053 128 128 128
0.455025 -0.378324 1.49136 128 128 128
0.383353 0.0668239 1.64763 128 128 128
-0.0409279 -0.0347293 1.41635 128 128 128
-0.0468791 -0.0901186 1.44148 128 128 128
-0.0265075 -0.0692172 1.44695 128 128 128
-0.249267 -0.376117 1.78985 128 128 128
-0.258748 -0.350688 1.86371 128 128 128
0.434811 0.235007 1.71724 128 128 128
-0.6537 -0.278597 1.13927 128 128 128
-0.647678 -0.0713724 0.901431 128 128 128
0.301434 -0.372307 1.08029 128 128 128
0.329694 -0.315428 1.45576 128 128 128
-0.640799 -0.273269 1.14503 128 128 128
-0.041819 0.0635505 1.54577 128 128 128
-0.679658 -0.345964 1.93658 128 128 128
0.57933 -0.231475 1.41506 128 128 128
0.128258 0.0501511 1.96516 128 128 128
-0.0142661 -0.0756939 1.48402 128 128 128
-0.555619 -0.343259 0.719433 128 128 128
0.113779 0.0689603 0.310224 128 128 128
0.355956 -0.3608 0.739236 128 128 128
0.434386 -0.273865 1.0798 128 128 128
-0.105154 0.115956 0.878737 128 128 128
-0.928025 -0.430945 1.87028 128 128 128
-0.586309 0.106662 0.956767 128 128 128
0.149793 0.0370555 0.3022 128 128 128
-0.22142 0.154305 0.859978 128 128 128
-0.102457 0.081927 0.90794 128 128 128
-0.516812 -0.0127289 1.69271 128 128 128
-0.104852 0.0716368 0.956636 128 128 128
0.0772719 -0.340609 0.631314 128 128 128
0.199555 0.00329298 0.414163 128 128 128
-0.465427 -0.337536 0.681349 128 128 128
0.0434411 -0.367799 0.754953 128 128 128
-0.140836 -0.34219 0.860693 128 128 128
-0.0490102 -0.328685 0.668267 128 128 128
-0.644719 -0.317011 0.859687 128 128 128
-0.609336 -0.324072 0.9182 128 128 128
0.600278 -0.218336 0.844444 128 128 128
0.367108 -0.390666 1.71833 128 128 128
0.079148 -0.353839 1.70838 128 128 128
0.102809 -0.335201 1.61244 128 128 128
0.320596 -0.373581 1.20693 128 128 128
0.258568 -0.108616 1.71548 128 128 128
0.60636 -0.125363 1.66028 128 128 128
0.60407 -0.238067 1.43177 128 128 128
0.6292 -0.121566 1.44322 128 128 128
0.185252 -0.35181 0.887278 128 128 128
-0.651941 0.0038148 0.800287 128 128 128
-0.654705 0.136057 0.940949 128 128 128
-0.652337 0.0767729 1.33539 128 128 128
-0.644567 0.0809306 0.985405 128 128 128
0.154518 0.0370933 0.308027 128 128 128
0.128842 0.10536 0.320691 128 128 128
0.471855 0.180371 1.34088 128 128 128
0.532753 0.0633453 1.69926 128 128 128
0.572572 -0.371788 1.1259 128 128 128
-0.385202 -0.341111 1.01956 128 128 128
-0.394483 -0.295077 0.978959 128 128 128
-0.493465 0.141567 1.20439 128 128 128
-0.565766 0.125508 1.19766 128 128 128
-0.628851 0.170722 1.51285 128 128 128
0.0625072 -0.346128 1.11042 128 128 128
-0.325768 0.0444628 1.34066 128 128 128
-0.472761 -0.343222 1.66104 128 128 128
-0.580517 -0.352887 1.31918 128 128 128
-0.591477 0.114132 0.960113 128 128 128
0.126969 0.03768 1.42651 128 128 128
-0.142647 -0.31027 1.61714 128 128 128
-0.154856 -0.358376 1.03486 128 128 128
0.457792 -0.375238 1.48638 128 128 128
0.485846 -0.381075 1.50333 128 128 128
0.592589 -0.448334 1.94384 128 128 128
0.581894 -0.374366 1.68427 128 128 128
0.432924 -0.412582 1.40852 128 128 128
0.409112 -0.36006 1.2908 128 128 128
0.340394 -0.345276 1.44618 128 128 128
0.442235 -0.376174 1.73691 128 128 128
0.405982 -0.071133 1.83427 128 128 128
0.314164 -0.0357293 1.72763 128 128 128
0.376478 -0.00626549 1.75363 128 128 128
0.00180927 0.120871 1.9438 128 128 128
0.0731261 0.101134 1.71546 128 128 128
0.0383136 0.137831 1.7411 128 128 128
-0.247028 -0.360143 1.72102 128 128 128
-0.293071 -0.371955 1.92412 128 128 128
-0.262713 -0.379907 1.99668 128 128 128
-0.230454 0.189361 1.06037 128 128 128
-0.596926 -0.316682 0.693867 128 128 128
-0.642604 -0.315601 0.711923 128 128 128
0.378869 -0.364887 1.20333 128 128 128
0.480474 0.511997 1.58441 128 128 128
0.496269 0.495763 1.53607 128 128 128
0.438567 -0.0772231 1.68481 128 128 128
