ply
format ascii 1.0
element vertex 424
property float x
property float y
property float z
property uchar red
property uchar green
property uchar blue
end_header
-0.134025 -0.106171 0.433356 128 128 128
-0.14697 -0.203421 0.632557 128 128 128
-0.250718 0.0958752 0.333042 128 128 128
-0.112069 0.166568 0.501958 128 128 128
-0.296466 -0.0605259 0.501523 128 128 128
-0.246838 0.0573309 0.351975 128 128 128
-0.00990298 -0.0723789 0.347107 128 128 128
-0.0728721 -0.0861661 0.44754 128 128 128
-0.410433 -0.195854 0.65504 128 128 128
-0.279013 -0.0262604 0.366775 128 128 128
-0.333948 -0.0186489 0.36513 128 128 128
0.0553872 -0.233183 0.737146 128 128 128
-0.17671 0.220409 0.51618 128 128 128
-0.0319474 0.457884 1.0165 128 128 128
-0.145388 0.104487 0.381971 128 128 128
-0.219501 0.19198 0.872702 128 128 128
1.81995 2.71608 7.59156 128 128 128
0.159195 0.597185 1.3858 128 128 128
0.194925 0.278801 0.87179 128 128 128
0.181574 0.236527 0.872686 128 128 128
0.162723 0.215807 0.750838 128 128 128
0.0357406 0.0105771 0.344399 128 128 128
1.41033 2.3753 5.78869 128 128 128
0.768687 1.32095 3.09675 128 128 128
-0.257889 0.0842018 0.304312 128 128 128
-0.242241 0.0767804 0.45918 128 128 128
-0.327954 0.0261403 0.365681 128 128 128
-0.212377 0.0184377 0.29402 128 128 128
0.0109708 0.225306 0.711363 128 128 128
-0.242088 0.196938 0.949277 128 128 128
-0.191322 0.177938 0.520106 128 128 128
-0.0589814 0.0300116 0.375915 128 128 128
-0.00234997 0.0155114 0.307957 128 128 128
-0.0493352 0.0467278 0.345751 128 128 128
-0.0478171 0.037119 0.323732 128 128 128
-0.0172883 0.0589983 0.378574 128 128 128
0.00105457 0.0353199 0.380813 128 128 128
-0.220642 0.0275812 0.519324 128 128 128
-0.243315 0.0172785 0.571651 128 128 128
-0.222017 0.0679018 0.619325 128 128 128
-0.159808 0.0781719 0.511737 128 128 128
-0.160004 0.0647265 0.590265 128 128 128
-0.11948 0.321623 0.734187 128 128 128
-0.14824 0.344904 0.88675 128 128 128
-0.124882 0.401278 0.857971 128 128 128
-0.132273 0.310287 0.669788 128 128 128
-0.165926 0.208377 0.413232 128 128 128
-0.889752 1.60529 3.45271 128 128 128
0.0633263 -0.166877 0.352657 128 128 128
0.0112979 -0.172063 0.415009 128 128 128
0.128528 -0.701983 1.2294 128 128 128
0.722592 -0.350742 5.60125 128 128 128
0.0378621 -0.151502 0.493419 128 128 128
0.0395627 -0.133032 0.46652 128 128 128
-0.019631 -0.249228 0.491793 128 128 128
-0.0990292 -0.203714 0.563348 128 128 128
-0.25193 -0.243944 0.616702 128 128 128
-0.235395 -0.282186 0.678186 128 128 128
-0.324325 -0.037026 0.357052 128 128 128
-0.296706 -0.00257683 0.332607 128 128 128
-0.410212 -0.187388 0.636182 128 128 128
-0.230386 -0.0722492 0.380495 128 128 128
-0.206279 -0.0905199 0.410964 128 128 128
-0.195475 -0.09818 0.398277 128 128 128
-0.229247 -0.120918 0.483081 128 128 128
-0.360523 -0.103559 0.42568 128 128 128
-0.0645134 -0.0309382 0.332835 128 128 128
-0.0865215 -0.0582099 0.419954 128 128 128
0.0089317 -0.056154 0.376576 128 128 128
-0.0381871 -0.0264446 0.30573 128 128 128
-0.244028 -0.0744724 0.588366 128 128 128
-0.167553 -0.0534104 0.518911 128 128 128
-0.173356 -0.102788 0.596531 128 128 128
-0.209807 -0.0237563 0.506905 128 128 128
-0.246996 -0.0283355 0.562605 128 128 128
-0.14363 -0.254513 0.938596 128 128 128
-0.19333 -0.326765 1.02135 128 128 128
-0.0894473 -0.140821 0.580373 128 128 128
-0.178713 -0.139939 0.51689 128 128 128
-0.145209 -0.127873 0.456638 128 128 128
-0.197721 -0.0972569 0.471949 128 128 128
-0.180701 -0.101377 0.416454 128 128 128
-0.172716 -0.115706 0.570904 128 128 128
-0.338257 0.0537149 0.495972 128 128 128
-0.0555234 -0.135387 0.481052 128 128 128
-0.0340804 -0.0940118 0.335133 128 128 128
-0.0525655 -0.0561148 0.383532 128 128 128
-0.0614169 -0.0621653 0.361447 128 128 128
-0.187973 -0.032994 0.423583 128 128 128
-0.17399 0.0617884 0.322847 128 128 128
-0.271947 -0.0869376 0.432438 128 128 128
1.22766 -4.05646 7.68446 128 128 128
0.00422736 0.0418228 0.293206 128 128 128
-0.0341869 0.0259415 0.331518 128 128 128
-0.0381577 -0.0233146 0.298855 128 128 128
-0.236751 -0.281353 0.996696 128 128 128
-0.230215 0.114422 0.714157 128 128 128
-0.234203 0.103219 0.607473 128 128 128
0.653287 -1.51769 2.84605 128 128 128
0.45867 -1.33371 3.02401 128 128 128
0.364384 -1.31524 2.45077 128 128 128
0.0763173 -0.277427 0.609759 128 128 128
0.0186552 -0.0442818 0.332892 128 128 128
-0.0102123 0.0447807 0.311222 128 128 128
-0.012372 0.0307069 0.354289 128 128 128
-0.0115343 0.0356444 0.349829 128 128 128
-0.0195309 0.0218366 0.325228 128 128 128
-0.0212314 0.0319792 0.387838 128 128 128
-0.0294574 -0.0279544 0.251545 128 128 128
-0.0572645 0.0105034 0.342423 128 128 128
-0.149129 -0.243544 0.574599 128 128 128
-0.238484 0.108182 0.666749 128 128 128
-0.216574 0.105399 0.612889 128 128 128
-0.211683 0.104092 0.553973 128 128 128
-0.248394 0.102511 0.474782 128 128 128
-0.269245 0.0246593 0.485673 128 128 128
-0.264657 0.0302582 0.479408 128 128 128
-0.24896 0.049193 0.372442 128 128 128
-0.226769 0.0682812 0.265946 128 128 128
0.389268 -1.23435 2.17761 128 128 128
0.64224 -2.45283 4.92067 128 128 128
0.0430659 0.0382431 0.356544 128 128 128
0.0291064 -0.0398791 0.329554 128 128 128
0.0219505 -0.503225 0.91683 128 128 128
0.00172998 0.0294426 0.407087 128 128 128
-0.0127763 0.0451935 0.354131 128 128 128
-0.0363336 0.0353543 0.330897 128 128 128
-0.0302942 0.0442653 0.316294 128 128 128
-0.0453854 -0.0291709 0.321999 128 128 128
-0.191082 -0.303011 1.13441 128 128 128
-0.0630723 -0.0100356 0.348834 128 128 128
-0.204716 -0.282537 1.05636 128 128 128
-0.0971196 -0.0335001 0.510826 128 128 128
-0.186848 0.0915428 0.777483 128 128 128
-0.144597 0.0889202 0.501967 128 128 128
-0.142572 -0.0729758 0.498062 128 128 128
-0.166079 -0.0619723 0.573379 128 128 128
-0.218553 0.117487 0.627837 128 128 128
-0.191349 0.0458895 0.526929 128 128 128
-0.119053 -0.0322293 0.290628 128 128 128
-0.205829 0.0298612 0.511976 128 128 128
-0.197823 -0.0192035 0.466119 128 128 128
-0.235787 -0.0130146 0.555601 128 128 128
-0.201255 -0.0441037 0.470747 128 128 128
-0.347775 0.0710568 0.640378 128 128 128
-0.248159 0.0136356 0.444863 128 128 128
-0.252608 0.00493169 0.449866 128 128 128
-0.647212 0.165178 1.18975 128 128 128
-0.218899 0.0577175 0.392333 128 128 128
-0.222456 0.0280406 0.405742 128 128 128
-0.16776 0.0257849 0.309324 128 128 128
-0.344538 -0.0515068 0.586202 128 128 128
-0.249658 -0.0315992 0.429238 128 128 128
-0.26058 -0.030206 0.451005 128 128 128
-0.215819 0.0754043 0.33269 128 128 128
-0.286317 -0.0105707 0.385657 128 128 128
-0.275513 -0.058351 0.356911 128 128 128
-0.403818 -0.0843959 0.536634 128 128 128
-0.58936 -0.168463 0.710561 128 128 128
0.107075 -0.266394 0.497052 128 128 128
2.30645 -4.99654 10.0385 128 128 128
0.741457 -1.63715 3.3363 128 128 128
0.0247096 -0.0271544 0.314612 128 128 128
0.0225 -0.0427529 0.306613 128 128 128
0.0543184 -0.367802 0.879242 128 128 128
0.0143487 -0.0508741 0.326291 128 128 128
0.024907 -0.159057 0.515575 128 128 128
0.0753767 -0.793743 1.66195 128 128 128
0.0525237 -0.751731 1.59141 128 128 128
-0.0159235 -0.266605 0.506507 128 128 128
-0.0101555 -0.231121 0.449011 128 128 128
-0.0204705 0.0511647 0.336558 128 128 128
-0.034214 0.059656 0.370394 128 128 128
-0.038785 0.0621323 0.421347 128 128 128
-0.030077 0.0734077 0.369275 128 128 128
-0.02501 0.0722611 0.359063 128 128 128
-0.0562769 -0.167856 0.494225 128 128 128
-0.0505713 0.0225572 0.342363 128 128 128
-0.0559701 0.0325786 0.391855 128 128 128
-0.0436889 0.0274995 0.290458 128 128 128
-0.051485 0.0373605 0.372575 128 128 128
-0.105514 0.315643 0.691149 128 128 128
-0.049863 0.0647663 0.369356 128 128 128
-0.0503323 0.0723275 0.382412 128 128 128
-0.0671187 -0.15747 0.472875 128 128 128
-0.15609 0.365959 0.87948 128 128 128
-0.0802542 -0.0437431 0.472583 128 128 128
-0.150264 0.311095 0.725882 128 128 128
-0.140485 0.318564 0.70527 128 128 128
-0.228388 -0.223083 1.02212 128 128 128
-0.32973 -0.316509 1.52805 128 128 128
-0.767699 -0.870794 3.31401 128 128 128
-0.142505 0.0878151 0.638566 128 128 128
-0.157985 -0.0690031 0.549693 128 128 128
-0.195408 0.0520811 0.592076 128 128 128
-0.225379 -0.117761 0.634997 128 128 128
-0.147728 0.0960991 0.435887 128 128 128
-0.247311 0.147996 0.632155 128 128 128
-0.215664 0.0552477 0.579077 128 128 128
-0.196725 0.0573134 0.531662 128 128 128
-0.135977 -0.0618449 0.348655 128 128 128
-0.142679 -0.0675213 0.375523 128 128 128
-0.24438 0.0203748 0.598102 128 128 128
-0.202807 -0.0800942 0.482888 128 128 128
-0.180576 -0.0825884 0.423217 128 128 128
-0.177495 -0.0774553 0.417105 128 128 128
-0.330463 -0.0873791 0.761478 128 128 128
-0.171939 0.190125 0.370335 128 128 128
-0.315371 -0.142821 0.679364 128 128 128
-0.319708 -0.0741039 0.699166 128 128 128
-0.234781 -0.0718722 0.484213 128 128 128
-0.215386 0.0601233 0.405127 128 128 128
-0.182669 0.0410064 0.305411 128 128 128
-0.234954 0.192245 0.365231 128 128 128
-0.29164 0.0498101 0.433234 128 128 128
-0.320448 0.107414 0.483661 128 128 128
-0.187504 0.14953 0.283526 128 128 128
-0.279687 -0.0152772 0.394515 128 128 128
-0.28068 -0.0198042 0.38073 128 128 128
-0.252847 -0.00385004 0.342692 128 128 128
-0.607057 -0.179532 0.764133 128 128 128
-0.637817 -0.274828 0.76297 128 128 128
-0.392378 -0.110714 0.441826 128 128 128
-0.292981 2.17438e-05 0.329435 128 128 128
-0.322448 -0.0438629 0.368561 128 128 128
-0.245773 0.006924 0.272362 128 128 128
-0.514611 -0.144376 0.572476 128 128 128
-0.270006 -0.00754564 0.294437 128 128 128
-0.303719 -0.00999079 0.33788 128 128 128
-0.136825 -0.164632 0.709253 128 128 128
-0.176741 0.104178 0.642538 128 128 128
-0.16328 0.061123 0.581644 128 128 128
-0.363599 0.162937 0.974506 128 128 128
-0.174393 -0.0345364 0.409391 128 128 128
-0.346189 0.123982 0.509263 128 128 128
-0.234364 0.0850976 0.339418 128 128 128
-0.322213 -0.0333472 0.435897 128 128 128
0.997987 -4.5525 9.33366 128 128 128
0.00240349 -0.0645156 0.367684 128 128 128
-0.00111256 -0.0608021 0.361922 128 128 128
-0.0351591 0.041501 0.346279 128 128 128
-0.0509606 -0.0279012 0.367526 128 128 128
-0.0398495 -0.0215346 0.304167 128 128 128
-0.176379 -0.321886 1.00012 128 128 128
-0.0633442 -0.12675 0.331712 128 128 128
-0.207728 -0.390637 1.09278 128 128 128
-0.190782 0.361511 0.899287 128 128 128
-0.182952 0.101062 0.60682 128 128 128
-0.305551 0.17641 1.03639 128 128 128
-0.408206 0.224058 1.22326 128 128 128
-0.131961 -0.0362349 0.410291 128 128 128
-0.279693 0.100182 0.531772 128 128 128
0.341171 -0.812807 1.5703 128 128 128
0.0936657 -0.255295 0.485434 128 128 128
0.029125 0.00363224 0.28962 128 128 128
0.0352332 -0.0260946 0.352231 128 128 128
0.0321935 -0.0297259 0.328949 128 128 128
0.140813 0.399306 1.37063 128 128 128
0.0237425 -0.0202476 0.279743 128 128 128
0.0261894 -0.0402751 0.310869 128 128 128
0.0616898 0.251938 0.879129 128 128 128
0.024749 -0.0426318 0.350038 128 128 128
0.010226 -0.37341 0.653498 128 128 128
-0.000785223 0.0580947 0.422136 128 128 128
-0.00658555 0.0370254 0.350882 128 128 128
-0.00523156 0.0360982 0.307798 128 128 128
-0.0163431 0.180507 0.517096 128 128 128
-0.0152521 -0.077345 0.300018 128 128 128
-0.0185364 -0.12787 0.495346 128 128 128
-0.0619489 -0.183226 0.766994 128 128 128
-0.0311336 0.0306805 0.341234 128 128 128
-0.0492643 -0.130263 0.490924 128 128 128
-0.0373147 0.0562649 0.368975 128 128 128
-0.0370855 0.0351511 0.367585 128 128 128
-0.0373962 -0.0370277 0.343982 128 128 128
-0.0525695 0.0327726 0.434621 128 128 128
-0.0486848 -0.0485716 0.362007 128 128 128
-0.0860409 -0.176701 0.605088 128 128 128
-0.0678554 -0.0631352 0.45131 128 128 128
-0.0649442 -0.0728415 0.410287 128 128 128
-0.135812 -0.252437 0.810826 128 128 128
-0.129158 -0.186333 0.7771 128 128 128
-0.0567955 0.0051316 0.332227 128 128 128
-0.0990928 -0.128321 0.544206 128 128 128
-0.114614 -0.170295 0.628998 128 128 128
-0.0613955 -0.0130319 0.334354 128 128 128
-0.0594741 -0.0135996 0.347063 128 128 128
-0.103763 -0.0394244 0.537872 128 128 128
-0.0691124 -0.020015 0.371298 128 128 128
-0.176597 -0.253108 0.890895 128 128 128
-0.0949317 -0.163981 0.487345 128 128 128
-0.122444 0.200347 0.66253 128 128 128
-0.253326 -0.324572 1.26667 128 128 128
-0.186288 -0.22026 0.870926 128 128 128
-0.140475 -0.165032 0.667425 128 128 128
-0.234234 -0.249809 1.10569 128 128 128
-0.152217 -0.191173 0.675876 128 128 128
-0.2919 -0.38135 1.34177 128 128 128
-0.136078 -0.242751 0.56505 128 128 128
-0.170786 0.128252 0.667834 128 128 128
-0.105535 -0.0580932 0.411934 128 128 128
-0.187209 -0.0527822 0.682141 128 128 128
-0.181315 -0.0635688 0.648196 128 128 128
-0.167639 -0.0889836 0.575109 128 128 128
-0.171638 0.085951 0.572309 128 128 128
-0.185199 0.101943 0.584699 128 128 128
-0.186729 0.109489 0.601235 128 128 128
-0.107688 0.047311 0.305462 128 128 128
-0.0170066 -0.0185038 0.150482 128 128 128
0.0126974 0.0624983 0.202344 128 128 128
-0.00972897 -0.0574661 0.267204 128 128 128
-0.114081 0.0397682 0.170276 128 128 128
0.0173374 0.0294073 0.270507 128 128 128
0.0177194 0.0236029 0.290414 128 128 128
-0.00389049 0.0513838 0.313288 128 128 128
-0.0477923 -0.106526 0.291864 128 128 128
-0.0385702 0.00890689 0.256925 128 128 128
0.0183366 0.0328322 0.284031 128 128 128
-0.0198894 -0.0469193 0.191765 128 128 128
-0.018548 0.00238057 0.0212801 128 128 128
-0.108066 0.0334986 0.298141 128 128 128
-0.0441191 -0.0241011 0.252201 128 128 128
0.0203607 -0.0792134 0.14327 128 128 128
-0.288187 0.0727488 0.526537 128 128 128
0.0074779 -0.0567714 0.183449 128 128 128
-0.0624938 0.0150256 0.0949977 128 128 128
-0.0948192 -0.0420133 0.231806 128 128 128
0.0130668 0.0967406 0.223502 128 128 128
-0.0641262 0.0343004 0.200537 128 128 128
-0.0190572 0.00201308 0.0216753 128 128 128
0.0195101 -0.0357637 0.264965 128 128 128
0.00240983 0.0257584 0.0954145 128 128 128
-0.0439421 -0.0718407 0.316179 128 128 128
0.0256225 -0.0930172 0.192572 128 128 128
-0.0311231 -0.0363575 0.242757 128 128 128
0.00211958 -0.0471395 0.274821 128 128 128
-0.0442879 -0.0366706 0.356509 128 128 128
-0.0386824 0.0725641 0.298854 128 128 128
-0.191254 0.0730178 0.358064 128 128 128
-0.0786164 -0.0430104 0.407772 128 128 128
-0.033154 0.0750935 0.386916 128 128 128
0.0415311 0.0313397 0.333981 128 128 128
-0.208127 -0.0427906 0.27201 128 128 128
0.000904837 -0.156984 0.377191 128 128 128
-0.0525767 -0.0345049 0.225349 128 128 128
0.0162116 -0.0736265 0.128533 128 128 128
-0.0391427 -0.0351124 0.342005 128 128 128
0.0360423 0.0234182 0.324767 128 128 128
0.0363066 -0.111289 0.21814 128 128 128
-0.0171848 -0.0229926 0.217189 128 128 128
-0.0323958 -0.0265782 0.223202 128 128 128
-0.038752 0.0929953 0.270873 128 128 128
-0.134914 -0.223645 0.869411 128 128 128
0.0214587 0.0281839 0.363789 128 128 128
-0.0820189 -0.0620552 0.278208 128 128 128
0.0136877 -0.0577408 0.362543 128 128 128
-1.35349 -0.298516 3.07278 128 128 128
0.0243621 -0.0833138 0.292523 128 128 128
0.000292916 -0.00147058 0.00299928 128 128 128
0.0187779 0.0254801 0.30933 128 128 128
0.0199867 -0.085502 0.160024 128 128 128
-0.0342564 -0.0282173 0.243877 128 128 128
-0.0169352 -0.0670583 0.266562 128 128 128
-0.0693783 -0.0118707 0.38328 128 128 128
-0.585455 -0.240974 1.16644 128 128 128
-0.231768 0.0372403 0.264289 128 128 128
-0.0374273 -0.0258832 0.300879 128 128 128
-0.115798 0.0663784 0.353281 128 128 128
0.0156433 0.0671735 0.241152 128 128 128
-0.19373 -0.039331 0.252894 128 128 128
-0.0527351 0.0197708 0.356972 128 128 128
-0.442389 0.170214 1.15583 128 128 128
-0.0242568 -0.0170722 0.195968 128 128 128
-0.0267813 0.0724178 0.143655 128 128 128
0.0239433 -0.0838189 0.188131 128 128 128
0.0249583 0.0762004 0.234053 128 128 128
-0.132562 -0.0438984 0.205821 128 128 128
-0.15719 -0.0559458 0.252457 128 128 128
0.0335842 0.489184 1.17274 128 128 128
-0.0982536 -0.00262892 0.109585 128 128 128
-0.0571995 -0.00915612 0.316924 128 128 128
-0.0267626 -0.0343302 0.349778 128 128 128
0.0198305 -0.044192 0.333166 128 128 128
0.0158142 0.0954735 0.235994 128 128 128
0.0103455 -0.0522586 0.323029 128 128 128
-0.0339326 -0.11069 0.318779 128 128 128
0.00717343 -0.0540858 0.306391 128 128 128
-0.0653161 0.00426878 0.385935 128 128 128
-0.194693 0.0161892 0.26988 128 128 128
0.0247472 -0.0380316 0.294302 128 128 128
-0.0439825 -0.0133533 0.268699 128 128 128
0.0247829 -0.0253849 0.290405 128 128 128
-0.0332756 0.0487178 0.272852 128 128 128
-0.0569877 -0.0625609 0.429713 128 128 128
-0.0977492 0.0331526 0.142151 128 128 128
-0.0458942 0.0782531 0.179659 128 128 128
-0.0401739 -0.0160303 0.25984 128 128 128
-0.152792 0.0338542 0.177365 128 128 128
-0.139988 0.0395303 0.164376 128 128 128
0.024019 -0.0609329 0.140692 128 128 128
-0.220601 -0.0321427 0.371316 128 128 128
-0.0552606 -0.0377146 0.335805 128 128 128
0.0182282 -0.0420793 0.314713 128 128 128
-0.0780943 -0.0675623 0.435063 128 128 128
-0.0788939 0.00404216 0.352226 128 128 128
-0.0734978 -0.0797584 0.375753 128 128 128
-0.0454821 -0.0495493 0.288649 128 128 128
-0.0371571 -0.0318846 0.338231 128 128 128
0.0613953 0.0449958 0.604457 128 128 128
0.0232776 -0.0442266 0.317111 128 128 128
-0.0263727 -0.0127297 0.184847 128 128 128
-0.0299526 -0.0265334 0.276862 128 128 128
-0.0603003 -0.00953476 0.331591 128 128 128
-0.0870032 -0.00289047 0.0969 128 128 128
0.0206386 -0.0209217 0.228495 128 128 128
-0.0376524 0.112054 0.329763 128 128 128
-0.00015453 -0.0537389 0.318395 128 128 128
-0.00433896 -0.0389563 0.14185 128 128 128
-0.0709953 -0.0138427 0.302127 128 128 128
-0.0473706 -0.0143285 0.288699 128 128 128
-0.0309868 -0.0610009 0.173181 128 128 128
-0.0630323 -0.0120013 0.268168 128 128 128
-0.0115535 -0.0740177 0.353674 128 128 128
-0.0208917 -0.0277132 0.277693 128 128 128
