ply
format ascii 1.0
element vertex 1239
property float x
property float y
property float z
property uchar red
property uchar green
property uchar blue
end_header
-1.91583 -1.28178 -0.514683 128 128 128
-2.61781 -1.22553 -0.0392274 128 128 128
-1.59197 -0.877575 -0.528992 128 128 128
-2.39988 -2.4982 1.97721 128 128 128
-2.47182 -2.93755 1.9553 128 128 128
-2.84531 -1.68076 1.8453 128 128 128
-3.43243 -3.50408 0.499153 128 128 128
-2.78062 -1.6514 1.79289 128 128 128
-2.367 -2.83173 2.01001 128 128 128
-3.12527 -3.40421 0.977042 128 128 128
-2.75816 -2.98382 -0.437621 128 128 128
-2.46623 -2.95092 1.97055 128 128 128
-0.392395 -4.87308 -0.0988348 128 128 128
0.884589 -7.01515 2.30347 128 128 128
0.0275336 -4.20548 -0.199255 128 128 128
-0.127828 -7.72955 0.124755 128 128 128
-2.1558 -5.37515 2.16894 128 128 128
-0.542964 -7.11998 2.33721 128 128 128
-1.03675 -7.42668 2.34163 128 128 128
-0.633182 -6.05331 2.27814 128 128 128
-2.83877 -5.69563 -0.778063 128 128 128
0.483082 -6.98055 2.30906 128 128 128
-0.932571 -3.88596 -0.151925 128 128 128
-2.33109 -9.11749 2.33164 128 128 128
-2.65897 -5.26622 -0.252614 128 128 128
-1.97185 -6.22799 -0.315971 128 128 128
1.61224 -7.08064 -0.107745 128 128 128
-0.708324 -4.45838 -0.0442165 128 128 128
-2.71556 -4.87674 1.98055 128 128 128
1.77069 -7.80175 2.36799 128 128 128
-2.89818 -10.081 3.40368 128 128 128
-2.00483 -5.01527 2.19525 128 128 128
-1.6585 -4.88761 2.24156 128 128 128
-0.097126 -5.78698 2.24622 128 128 128
-1.36005 -6.16917 1.9687 128 128 128
-1.27204 -6.20627 2.2147 128 128 128
0.285369 -7.45876 2.27805 128 128 128
-2.39934 -2.47521 1.96107 128 128 128
-2.05134 -4.99197 2.26576 128 128 128
-2.06795 -4.82026 -0.889459 128 128 128
-3.23837 -1.56179 1.74451 128 128 128
-2.46424 -3.96611 -1.03979 128 128 128
-2.36884 -3.90376 -1.19915 128 128 128
-3.05589 -2.62252 1.95733 128 128 128
-2.41647 -3.94397 -1.21952 128 128 128
-2.92156 -5.5399 0.166518 128 128 128
-2.57448 -2.86119 -0.399551 128 128 128
-1.20462 -4.29262 -1.05399 128 128 128
-1.28802 -4.39964 -0.60314 128 128 128
-2.3259 -3.88089 -1.18342 128 128 128
-3.35828 -3.0328 -0.604076 128 128 128
-1.65221 -3.69927 -1.20274 128 128 128
-2.37189 -3.92236 -1.20174 128 128 128
-3.70844 -3.08698 -0.430541 128 128 128
-1.34289 -4.49892 -0.573573 128 128 128
-1.69263 -2.03882 -0.485865 128 128 128
-1.66913 -2.02401 -0.479755 128 128 128
-1.69332 -2.04085 -0.489851 128 128 128
-1.50165 -1.63176 -0.166255 128 128 128
-1.5094 -1.63229 -0.168948 128 128 128
1.03317 -5.49671 2.02456 128 128 128
0.203595 -5.33429 -0.134724 128 128 128
-0.236117 -4.2598 -0.171888 128 128 128
-3.97135 -7.54067 -1.19423 128 128 128
0.821982 -7.21503 0.0128697 128 128 128
-2.76447 -5.98338 -0.793844 128 128 128
-1.40734 -7.70585 2.3577 128 128 128
-0.970743 -7.44733 2.34663 128 128 128
-1.46092 -5.31116 2.19585 128 128 128
-1.9169 -6.32269 2.28702 128 128 128
-3.15353 -5.52242 2.49589 128 128 128
-2.50766 -6.47226 2.25232 128 128 128
-2.26495 -5.18528 -0.780944 128 128 128
-0.11972 -7.42019 -0.0014903 128 128 128
-0.644165 -7.20458 2.48652 128 128 128
-1.45734 -7.92608 2.31887 128 128 128
2.33298 -6.46354 2.38899 128 128 128
-0.763578 -4.36237 -0.0529642 128 128 128
-1.62784 -6.80581 -0.748704 128 128 128
7.52768 -6.2314 0.827522 128 128 128
-1.32523 -6.14997 2.27468 128 128 128
-0.0959406 -5.69852 2.15795 128 128 128
1.63561 -8.133 0.725984 128 128 128
0.00951714 -5.83797 2.31718 128 128 128
0.479527 -5.64152 2.15496 128 128 128
125.816 27.2618 -53.2401 128 128 128
276.132 63.0783 -82.7184 128 128 128
34.9965 39.9633 -29.7902 128 128 128
-0.651278 -4.54703 -0.0272525 128 128 128
-2.9733 -5.56378 0.146129 128 128 128
-3.23708 -4.86049 2.37421 128 128 128
-1.48773 -7.78523 2.27131 128 128 128
-0.951608 -7.63818 1.03503 128 128 128
1.67765 -5.50716 -0.418183 128 128 128
-2.04082 -7.85181 2.39646 128 128 128
-2.26777 -4.29767 -0.472534 128 128 128
-2.73891 -4.49396 2.04632 128 128 128
1.08584 -6.66417 2.30837 128 128 128
-1.5496 -4.91006 2.21464 128 128 128
-2.3873 -5.75754 -0.966429 128 128 128
-2.40517 -5.16478 -1.0685 128 128 128
-0.752678 -8.49638 2.40361 128 128 128
0.397469 -7.70652 0.318706 128 128 128
1.37451 -7.41869 2.14841 128 128 128
-0.391911 -4.34701 -0.191925 128 128 128
-0.770147 -5.27434 -0.0258386 128 128 128
0.0575284 -4.95932 -0.177261 128 128 128
0.603023 -5.64004 2.25514 128 128 128
1.90321 -7.74403 0.36079 128 128 128
-0.455907 -4.40388 -0.19227 128 128 128
-1.17901 -5.81491 1.96839 128 128 128
-2.50576 -4.5504 1.92657 128 128 128
-1.3067 -6.23043 1.98094 128 128 128
-1.03639 2.86179 1.8352 128 128 128
-2.22712 2.77963 1.81969 128 128 128
2.00527 4.02974 -0.0640832 128 128 128
2.04928 4.1656 -0.0644827 128 128 128
-0.0113163 3.09205 0.367531 128 128 128
-2.08119 2.68676 -0.648062 128 128 128
-0.923409 2.78863 -1.02079 128 128 128
1.26218 3.32644 0.789158 128 128 128
-0.33457 2.78842 1.93222 128 128 128
-1.87729 3.36477 1.92825 128 128 128
101.896 19.6899 -41.1567 128 128 128
1.21996 -5.71102 -0.730804 128 128 128
1.72384 -5.87442 -1.24106 128 128 128
-2.34055 -1.16943 1.89151 128 128 128
-1.73749 -0.893031 -0.525066 128 128 128
-1.81721 -0.90006 -0.190226 128 128 128
-1.54744 -0.778332 -0.256087 128 128 128
-1.74852 -0.758998 -0.290659 128 128 128
-1.44765 -0.515147 -0.481505 128 128 128
-1.70415 0.987178 -0.383388 128 128 128
-1.80832 -0.619697 -0.00904271 128 128 128
-3.19163 0.465292 1.86395 128 128 128
1.60374 2.26828 1.06952 128 128 128
1.61512 2.1568 0.353161 128 128 128
1.14772 3.60487 -1.19007 128 128 128
1.82521 2.71867 0.800107 128 128 128
2.10153 4.0612 -0.11023 128 128 128
0.917466 2.18005 1.77969 128 128 128
1.22796 3.30398 0.829486 128 128 128
0.432244 3.42848 1.74153 128 128 128
-0.687922 1.82234 1.76712 128 128 128
0.0554915 3.04331 1.92205 128 128 128
1.38515 2.65673 -0.305137 128 128 128
0.559396 3.13076 -1.11543 128 128 128
1.66171 -7.23327 0.247264 128 128 128
1.84114 -7.62911 0.212109 128 128 128
5.38271 -2.82926 3.82222 128 128 128
2.29643 -3.64843 2.82193 128 128 128
4.27373 -4.10519 0.0982004 128 128 128
3.98472 -7.36095 0.592196 128 128 128
1.2142 -5.60081 1.9791 128 128 128
-3.72155 -1.77759 1.78008 128 128 128
-2.87889 -1.67421 1.84538 128 128 128
-3.95971 0.498185 0.344491 128 128 128
-3.83156 -1.34588 0.35876 128 128 128
-3.47413 -2.5491 0.988324 128 128 128
0.848335 -7.25383 0.163112 128 128 128
1.90811 -7.32491 0.216 128 128 128
2.40276 -7.57299 2.35357 128 128 128
1.92368 -7.72608 0.620187 128 128 128
4.39973 -6.77978 -0.227341 128 128 128
-3.82213 -0.907378 1.94907 128 128 128
-3.7493 -2.68171 1.05579 128 128 128
-2.80559 -1.66158 1.80561 128 128 128
-2.7157 -1.90974 1.93566 128 128 128
-4.29136 -0.00157846 -0.182244 128 128 128
-0.703416 1.75365 -0.793335 128 128 128
-1.98235 2.79964 -0.458567 128 128 128
-2.61164 2.91681 0.360501 128 128 128
-1.50774 3.61304 -0.000537934 128 128 128
1.95263 4.04759 -0.389323 128 128 128
-0.909185 2.13436 -0.501272 128 128 128
-0.186112 -5.1906 -0.0205148 128 128 128
-1.84795 -6.09645 2.12401 128 128 128
-1.59677 -1.42207 -0.28698 128 128 128
-1.31441 -1.66433 -0.525196 128 128 128
-1.58775 -0.766281 -0.52104 128 128 128
-1.65773 -0.657886 -0.716912 128 128 128
-1.07458 -1.03092 -0.453862 128 128 128
-1.46986 -1.58344 0.0889391 128 128 128
-1.55625 -1.62584 0.0923824 128 128 128
-1.44691 -1.31989 -0.524125 128 128 128
-1.61073 -1.52925 0.0075483 128 128 128
-1.66582 -1.58728 -0.458279 128 128 128
-1.71613 -1.52096 -0.469763 128 128 128
-1.49305 -0.504758 -0.499568 128 128 128
-1.48181 -1.58876 0.0866793 128 128 128
-2.10362 -0.663957 -0.637198 128 128 128
-1.55829 -0.661127 -0.0847556 128 128 128
-1.08829 -1.03355 -0.463683 128 128 128
-1.02803 -1.43677 -0.441475 128 128 128
-1.95571 -0.63519 -0.535842 128 128 128
-1.72935 -0.889748 -0.523063 128 128 128
-1.4966 -1.32879 -0.482104 128 128 128
-1.49309 -1.58973 -0.464934 128 128 128
-1.61557 -1.62563 -0.145883 128 128 128
-1.57784 -1.50054 0.0106723 128 128 128
1.20893 -5.57387 2.04304 128 128 128
-0.850338 -4.58365 -0.0802035 128 128 128
-2.50355 -4.40127 -0.331795 128 128 128
-2.27815 -4.40595 -0.475762 128 128 128
0.0515307 -4.91464 -0.171296 128 128 128
0.637883 -5.67187 2.29638 128 128 128
-2.72141 -6.13992 2.31135 128 128 128
-2.92712 -4.96888 0.67621 128 128 128
-0.140851 -5.93568 2.23661 128 128 128
-1.84184 -6.5192 2.31757 128 128 128
-2.71816 -5.44387 2.18158 128 128 128
-0.742669 -7.46659 -0.053722 128 128 128
-0.92253 -7.59118 2.36738 128 128 128
-1.3666 -6.76574 0.00606502 128 128 128
-2.04105 -8.4463 2.34737 128 128 128
-1.27609 -6.53414 0.0918077 128 128 128
1.13843 2.06493 -0.712158 128 128 128
2.68466 -7.46062 0.238801 128 128 128
108.223 22.5275 -46.2 128 128 128
-0.541258 -4.13533 -0.0699867 128 128 128
-0.697372 -4.52931 -0.038967 128 128 128
-1.40129 -6.92038 -0.671854 128 128 128
2.34204 -6.47341 2.39408 128 128 128
-1.96725 -8.18343 1.13112 128 128 128
15.4364 -15.5201 1.15394 128 128 128
337.273 -162.055 -32.978 128 128 128
228.671 -50.5445 -76.9829 128 128 128
273.474 19.6926 -112.006 128 128 128
1.91628 -7.72488 0.737927 128 128 128
-3.50632 -1.84429 1.35967 128 128 128
-3.55415 -1.73899 1.71965 128 128 128
-1.97844 -1.17822 -0.0483993 128 128 128
-3.41098 -2.51631 0.967354 128 128 128
-2.77833 -1.92159 1.9724 128 128 128
-0.790051 1.74025 -0.496973 128 128 128
-2.77463 3.0682 0.387943 128 128 128
-1.8704 2.70749 -0.371919 128 128 128
0.526209 3.5157 1.78436 128 128 128
-2.91218 1.64915 1.85169 128 128 128
-2.39057 3.22719 1.501 128 128 128
1.61666 2.29064 1.01349 128 128 128
0.663257 3.15802 0.589179 128 128 128
0.224852 3.05026 -0.267067 128 128 128
3.40356 -4.12232 0.620525 128 128 128
3.55833 -3.92001 0.104914 128 128 128
3.97865 -5.45101 2.36758 128 128 128
2.54889 -4.26845 2.20193 128 128 128
2.64825 -4.21858 2.25468 128 128 128
1.38158 -4.44874 2.41663 128 128 128
0.968065 -4.64067 2.12118 128 128 128
3.37425 -3.72346 0.110071 128 128 128
3.12335 -3.66484 0.406065 128 128 128
3.1689 -3.70274 1.069 128 128 128
1.50337 1.74978 -0.154438 128 128 128
1.50635 1.75203 -0.152614 128 128 128
-1.03678 2.86328 -0.903752 128 128 128
-0.77502 3.56614 -0.699643 128 128 128
-0.780299 1.66515 -0.641374 128 128 128
1.16242 3.47479 -1.01312 128 128 128
1.1781 3.31612 1.9037 128 128 128
-2.2393 3.05567 1.7913 128 128 128
2.1111 3.44144 1.17354 128 128 128
-0.067154 3.05649 -0.989412 128 128 128
-1.10862 3.71264 -0.0100662 128 128 128
0.302556 3.236 -1.03784 128 128 128
-0.187569 3.00984 -0.253678 128 128 128
0.280602 -6.11649 -0.0770801 128 128 128
1.99455 -5.71046 2.37163 128 128 128
2.2023 -5.29895 2.0984 128 128 128
3.46321 -4.53454 0.156985 128 128 128
1.57494 -7.55432 0.584045 128 128 128
-1.11756 -4.24405 -0.199712 128 128 128
-0.519898 -4.22445 -0.854171 128 128 128
-2.01239 -4.93346 2.22507 128 128 128
-1.09509 -4.72851 2.24696 128 128 128
-0.557745 -4.33388 -0.888616 128 128 128
-2.67515 -3.5431 -0.522573 128 128 128
-0.78531 -4.44554 -0.341545 128 128 128
-2.6715 -5.14384 -0.128965 128 128 128
-2.78146 -3.77301 2.00544 128 128 128
-3.06195 -3.8609 2.04199 128 128 128
-3.67505 -2.77961 -0.455539 128 128 128
-2.5942 -5.30573 -0.0698236 128 128 128
-2.60187 -5.53921 -1.00676 128 128 128
-1.75081 -0.764467 -0.262134 128 128 128
-1.71213 -0.91137 -0.171438 128 128 128
-3.72849 -3.059 -0.43991 128 128 128
-2.95584 -2.58683 1.99805 128 128 128
-2.00151 -1.09318 -0.181496 128 128 128
-3.70343 -1.86324 0.932019 128 128 128
-1.59765 -1.51497 0.0067467 128 128 128
-3.29551 -3.55452 0.415782 128 128 128
-1.16098 -1.04384 -0.488147 128 128 128
-3.34885 -3.0663 -0.312538 128 128 128
-1.86359 -0.580748 -0.228842 128 128 128
-2.89533 -1.92388 1.90226 128 128 128
-2.24699 -1.08128 -0.540029 128 128 128
-1.71392 -1.25424 -0.112173 128 128 128
-2.90301 -1.70124 1.61245 128 128 128
-1.54616 -1.66068 -0.31629 128 128 128
-1.72314 -1.30552 -0.192943 128 128 128
-1.0939 -1.03608 -0.465096 128 128 128
-1.53441 -1.59809 -0.00595497 128 128 128
-1.54803 -1.6045 -0.0286885 128 128 128
-1.40562 -1.55342 -0.292252 128 128 128
-1.59466 -1.07977 -0.412332 128 128 128
-1.74486 -1.26992 -0.123194 128 128 128
-4.08081 -0.066985 -0.315264 128 128 128
-4.01882 -0.103462 1.99533 128 128 128
-4.39082 0.0847037 2.14348 128 128 128
-1.72843 -1.12831 0.00553552 128 128 128
-1.40157 -2.08132 -0.558277 128 128 128
-1.74882 -0.723053 -0.491421 128 128 128
-3.8311 -0.799599 1.92725 128 128 128
-1.56437 -1.42696 -0.443445 128 128 128
-2.44477 -1.48932 1.67467 128 128 128
-2.98237 -1.11657 1.63673 128 128 128
-1.93586 -1.19443 0.0816751 128 128 128
-0.401476 -4.95693 2.20202 128 128 128
0.844486 -5.06398 -0.780074 128 128 128
1.06512 -5.95805 -0.985384 128 128 128
3.11487 -7.50524 2.42761 128 128 128
-2.22584 -6.39391 2.08156 128 128 128
-0.11143 -7.44852 -0.00132208 128 128 128
1.73587 -7.90166 0.718968 128 128 128
-2.63881 -5.11747 -0.315978 128 128 128
-1.59317 -5.06512 2.34146 128 128 128
-1.31869 -7.67168 2.33903 128 128 128
-2.24661 -4.37639 -0.463683 128 128 128
-2.23399 -6.69712 2.14828 128 128 128
23.6221 -5.93174 2.218 128 128 128
293.628 -79.2199 -139.724 128 128 128
134.225 -35.3087 -7.88327 128 128 128
2.62339 -7.2016 2.21767 128 128 128
1.25817 -7.07361 1.71113 128 128 128
0.0499749 -4.90932 -0.172295 128 128 128
-0.68955 -4.79628 -0.07692 128 128 128
-0.403489 -4.64056 -0.355225 128 128 128
-0.479443 -4.3081 -0.214055 128 128 128
-2.6344 -4.55583 1.99188 128 128 128
-3.91114 0.44237 2.24964 128 128 128
-1.86909 -0.657256 -0.485849 128 128 128
-1.73921 -0.300954 -0.442521 128 128 128
-1.70308 -0.730859 -0.543517 128 128 128
-1.7878 -1.0719 -0.159585 128 128 128
-3.12905 1.55736 1.63243 128 128 128
-2.38216 0.478299 1.88365 128 128 128
-3.0062 -0.766009 1.90374 128 128 128
-2.91161 -0.808546 1.73513 128 128 128
-3.0078 1.23382 1.94026 128 128 128
-2.31861 0.455914 1.8372 128 128 128
-3.71317 0.313502 2.01192 128 128 128
-3.85498 0.137257 -0.296504 128 128 128
-4.62086 1.28718 0.149633 128 128 128
-2.98481 -0.76887 1.88925 128 128 128
0.637901 -6.20688 2.27142 128 128 128
-0.460927 -4.35824 -0.196955 128 128 128
-0.68048 -3.91191 -0.170571 128 128 128
0.653093 -6.2004 2.27987 128 128 128
-0.961401 -3.94376 -0.166676 128 128 128
-0.673699 -4.71337 -0.0631876 128 128 128
-0.662545 -5.36598 -0.0618844 128 128 128
-0.757548 -4.5921 -0.0602695 128 128 128
-0.469516 -4.34409 -0.197765 128 128 128
0.603713 -5.79744 2.30495 128 128 128
-0.485301 -5.1867 -0.0236246 128 128 128
0.00134833 -4.37458 -0.184073 128 128 128
-2.47619 -5.1294 2.22645 128 128 128
-0.712804 -5.94574 2.25225 128 128 128
-0.292114 -7.40037 2.34482 128 128 128
1.90229 -7.68372 0.740379 128 128 128
-2.50223 -5.16982 2.26391 128 128 128
-2.03176 -5.04509 2.2246 128 128 128
-1.42624 -5.63587 2.25528 128 128 128
-2.83121 -5.31723 2.23333 128 128 128
-1.66311 -4.91517 2.25644 128 128 128
-0.156201 -8.26471 2.38491 128 128 128
-2.99343 -5.2628 2.29368 128 128 128
0.920292 -7.21354 0.0374962 128 128 128
1.45788 -7.93871 2.37603 128 128 128
-1.09543 -6.44169 2.16402 128 128 128
-1.4667 -7.90817 2.29984 128 128 128
-0.621958 -6.78957 2.32548 128 128 128
-1.49091 -3.96324 1.58906 128 128 128
1.87582 -7.63633 0.754435 128 128 128
0.973589 -7.21008 -0.11315 128 128 128
-1.29988 -6.29899 2.01291 128 128 128
-2.34201 -8.53866 0.22528 128 128 128
0.210305 -8.26517 1.01966 128 128 128
-1.22291 -6.02727 1.87483 128 128 128
-1.90355 -6.36735 -0.267613 128 128 128
0.236387 -7.37565 2.24877 128 128 128
-0.166679 -7.53086 0.127474 128 128 128
-0.171069 -7.48266 0.00760716 128 128 128
-1.60661 -5.78614 -0.180895 128 128 128
-0.090813 -6.2856 2.17959 128 128 128
-0.248458 -5.06085 -0.282131 128 128 128
-3.08693 -5.18918 -0.300412 128 128 128
-2.16997 -4.8663 -0.356818 128 128 128
-1.64337 2.96883 1.73828 128 128 128
-0.531987 1.04563 -0.582899 128 128 128
-1.45154 1.59136 0.456529 128 128 128
-0.869492 1.83667 0.225143 128 128 128
1.54332 3.35539 -1.14467 128 128 128
-1.01263 1.32404 -0.404241 128 128 128
-2.39719 3.13196 1.90332 128 128 128
-0.472443 0.970153 -0.546912 128 128 128
-0.0225741 -4.02573 1.89565 128 128 128
-0.473077 -5.32627 1.82658 128 128 128
-2.41618 -4.11401 2.04277 128 128 128
-1.71454 -0.304223 -0.436098 128 128 128
-1.65262 -0.645824 -0.521855 128 128 128
-1.85284 -0.724573 -0.225047 128 128 128
-1.79464 -1.07174 -0.155063 128 128 128
-2.15292 -1.36138 1.61435 128 128 128
-1.73282 -1.44141 -0.0853349 128 128 128
-1.66828 -0.856247 -0.564923 128 128 128
-3.45578 1.09445 1.87453 128 128 128
-1.82763 -0.616453 -0.531249 128 128 128
-4.5352 1.66866 -0.643612 128 128 128
-4.40631 1.18987 0.287614 128 128 128
-3.52499 -1.49667 1.94063 128 128 128
-3.90129 -0.84656 0.982402 128 128 128
-3.7917 -1.32995 0.639402 128 128 128
-3.95486 -0.845615 0.882414 128 128 128
-5.35356 2.09077 -0.787683 128 128 128
-4.04331 1.42558 -0.719891 128 128 128
-1.43116 -0.431194 -0.556098 128 128 128
-1.94574 -1.19543 0.0801495 128 128 128
-2.67921 -1.54516 1.82746 128 128 128
1.28286 3.28585 1.21127 128 128 128
-0.667519 1.65601 -0.841622 128 128 128
-0.00987439 3.09927 -0.0679796 128 128 128
0.226219 3.1285 -0.0645968 128 128 128
-0.304826 2.65042 1.81814 128 128 128
-0.831131 3.65539 -0.30039 128 128 128
-1.23637 1.65872 0.434236 128 128 128
-1.19495 2.93814 1.76598 128 128 128
1.03699 -4.54832 2.25921 128 128 128
2.96818 -3.97747 -0.0242085 128 128 128
0.990894 -4.42741 2.1322 128 128 128
0.40914 -7.37414 0.272275 128 128 128
2.68291 -7.67067 2.49798 128 128 128
2.47636 -3.09667 2.2527 128 128 128
30.4574 -4.63385 -3.895 128 128 128
-0.504827 -4.24505 1.96413 128 128 128
-1.11209 -3.97917 2.04536 128 128 128
-3.85111 -3.12598 -0.462981 128 128 128
-3.00462 -2.37911 -0.438806 128 128 128
-0.539949 -4.11818 1.86188 128 128 128
-0.391671 -4.78222 2.10529 128 128 128
-0.56926 -4.59905 2.20128 128 128 128
-3.3362 -1.45656 1.9119 128 128 128
-3.25428 -2.69662 1.97661 128 128 128
-3.33049 -2.55954 -0.681548 128 128 128
-3.48714 -2.66248 0.54662 128 128 128
-1.70967 -2.04026 -0.491827 128 128 128
-3.07561 -2.41949 -0.440758 128 128 128
-2.74031 -2.32616 -0.410642 128 128 128
-2.46137 -5.07334 -0.328326 128 128 128
-1.99428 -6.26743 2.11599 128 128 128
-2.66406 -6.60041 0.28616 128 128 128
-1.17624 -4.23981 -1.05753 128 128 128
-5.21763 -3.02674 3.08565 128 128 128
-2.73729 -6.32621 -0.289978 128 128 128
-1.31262 -3.40655 2.10907 128 128 128
-1.66132 -3.71838 -1.21582 128 128 128
-1.41221 -1.70545 -0.434215 128 128 128
-1.86736 -1.90482 -0.558263 128 128 128
-3.67522 -1.98534 0.849323 128 128 128
-1.38991 -4.58946 -0.600235 128 128 128
-3.38557 -4.0594 2.23913 128 128 128
-1.11826 -3.99862 -0.35038 128 128 128
-3.15893 -3.84609 2.12772 128 128 128
-2.78004 -5.68073 -1.30923 128 128 128
-0.164718 -6.56431 2.14926 128 128 128
8.37856 -7.37044 -1.80471 128 128 128
-2.48591 -5.51985 -0.291354 128 128 128
-2.09056 -5.3625 2.19525 128 128 128
-1.77821 -6.51729 -0.0630083 128 128 128
0.0958323 -5.91598 2.24629 128 128 128
-0.530901 -4.71676 -0.0344074 128 128 128
-1.84835 -6.30062 -0.431414 128 128 128
-1.26305 -7.02819 0.200423 128 128 128
-2.76444 -7.23538 2.39668 128 128 128
-2.39072 -6.7085 -0.716053 128 128 128
-2.33977 -7.2576 -0.819688 128 128 128
-0.555556 -3.8574 -0.251883 128 128 128
-0.610561 -3.91859 -0.107104 128 128 128
-2.29214 -4.38543 -0.401609 128 128 128
1.67627 -7.10811 0.0236933 128 128 128
-2.95294 -4.75407 2.07567 128 128 128
0.616422 -5.82535 2.24577 128 128 128
0.635219 -6.10752 2.23194 128 128 128
-2.57284 -4.39976 1.93899 128 128 128
0.671122 -6.2181 2.29952 128 128 128
1.67858 -7.75293 0.658056 128 128 128
-2.31348 -4.45021 -0.568735 128 128 128
-1.69451 -5.10342 -0.984815 128 128 128
-2.64685 -6.57005 0.2977 128 128 128
-1.10134 -8.50822 0.960713 128 128 128
-3.45739 -6.46201 0.2405 128 128 128
-0.362049 -8.15262 0.225392 128 128 128
1.91849 -7.69129 0.272031 128 128 128
1.04646 -6.68668 2.27413 128 128 128
4.17387 -5.94601 0.329736 128 128 128
1.5223 -7.78983 0.179146 128 128 128
-3.04996 -5.67417 0.256555 128 128 128
1.36211 -7.87104 0.234463 128 128 128
1.43094 -7.76419 0.670506 128 128 128
1.99629 -7.35336 0.11872 128 128 128
1.21302 -7.83806 0.3782 128 128 128
-2.32944 -4.35508 -0.580489 128 128 128
1.19782 -7.78154 0.77704 128 128 128
2.06301 -7.66711 0.137419 128 128 128
0.984277 -7.8202 0.349097 128 128 128
0.97721 -7.65729 0.209036 128 128 128
1.36217 -6.91133 2.31914 128 128 128
1.51849 -7.11119 2.28196 128 128 128
0.887006 -7.20236 -0.130002 128 128 128
-0.327538 -8.31389 0.257027 128 128 128
1.89869 -7.72552 0.355494 128 128 128
1.46979 -5.8127 -0.0283476 128 128 128
-1.59492 1.50576 1.73961 128 128 128
-3.49107 1.0912 1.87228 128 128 128
-3.43495 1.79971 1.70663 128 128 128
-4.7674 1.72255 -0.0338429 128 128 128
0.31807 2.8985 1.38493 128 128 128
-3.336 1.02878 1.80862 128 128 128
-3.07871 1.04559 1.74917 128 128 128
-0.680718 1.69599 -0.773437 128 128 128
-4.61158 1.74829 0.0951642 128 128 128
-2.68448 1.04486 1.76063 128 128 128
-3.57455 0.980378 1.85361 128 128 128
-4.74811 1.39397 -0.597006 128 128 128
-5.18547 1.98198 -0.523803 128 128 128
-3.28084 1.04792 -0.47432 128 128 128
-1.6267 1.3304 0.300929 128 128 128
-0.84456 3.1139 -0.491039 128 128 128
-2.76543 2.71789 -0.0771223 128 128 128
-0.944443 2.78178 -0.539561 128 128 128
1.06827 1.70908 -0.468857 128 128 128
0.533437 3.07313 0.439536 128 128 128
1.5581 1.61844 0.364956 128 128 128
1.56444 1.63698 0.204038 128 128 128
-0.999901 3.18419 -0.238159 128 128 128
-0.652934 1.66382 -0.751346 128 128 128
-2.67279 3.37022 2.09662 128 128 128
-1.434 3.46488 -0.00738977 128 128 128
-2.57538 2.55244 -0.0775327 128 128 128
-0.780214 1.7258 -0.50077 128 128 128
-0.930583 1.89101 -0.0532242 128 128 128
-2.2081 2.64493 -0.194452 128 128 128
-2.08543 2.42207 1.74536 128 128 128
-1.13345 3.3204 -1.20595 128 128 128
-0.676221 1.69558 0.397279 128 128 128
-0.671481 2.40393 1.80019 128 128 128
-0.626678 -6.77232 2.3149 128 128 128
1.91803 -7.80288 0.388387 128 128 128
1.08466 -7.29623 -0.645316 128 128 128
-0.439174 -7.95699 1.18701 128 128 128
1.39746 -7.03516 2.35911 128 128 128
1.69047 -7.75407 0.527923 128 128 128
1.92976 -7.65329 0.208636 128 128 128
-0.565278 -7.68226 1.12448 128 128 128
-0.548682 -7.67602 0.152384 128 128 128
-0.117921 -4.13394 -0.165595 128 128 128
-0.110709 -4.32058 -0.2 128 128 128
-0.112281 -4.2767 -0.187515 128 128 128
2.2664 -7.33981 0.12654 128 128 128
1.13025 -6.9667 1.91918 128 128 128
1.9702 -7.79376 -1.05244 128 128 128
1.82554 -5.70898 2.14416 128 128 128
2.52993 -7.69718 2.43132 128 128 128
-0.544918 -7.07363 2.31827 128 128 128
2.79552 -7.31996 0.383972 128 128 128
-1.30074 -6.3126 2.29466 128 128 128
-1.48673 -8.10053 2.25447 128 128 128
-1.25378 1.69124 0.566642 128 128 128
0.355751 3.73782 1.77904 128 128 128
-1.95041 2.7727 -0.44993 128 128 128
-0.64674 3.31387 -0.517993 128 128 128
-0.0307515 3.02246 1.85615 128 128 128
-0.386591 3.41269 0.14225 128 128 128
0.526436 3.4683 1.76166 128 128 128
-0.706948 3.16808 -0.3984 128 128 128
-1.07464 2.77229 -0.557661 128 128 128
-1.02605 -1.03369 -0.434206 128 128 128
-1.338 -1.68325 -0.405385 128 128 128
-1.78499 -0.775435 -0.299065 128 128 128
-1.05986 -1.03361 -0.449715 128 128 128
-1.74825 -1.28211 -0.478701 128 128 128
-1.45095 -1.55943 -0.0242933 128 128 128
-1.28922 -1.68973 -0.636429 128 128 128
-1.41986 -1.55948 -0.291991 128 128 128
-1.54491 -1.62132 0.0938424 128 128 128
-0.893067 -1.3767 -0.375378 128 128 128
-2.47852 -5.18134 -0.0601321 128 128 128
1.28717 -5.68251 2.41744 128 128 128
4.6231 -2.70409 1.21748 128 128 128
-0.835154 -5.29928 -0.0915648 128 128 128
2.97353 -7.55385 0.882587 128 128 128
2.06991 -7.67961 0.158193 128 128 128
1.63103 -7.10357 -0.120058 128 128 128
-2.33653 -4.29192 1.8027 128 128 128
1.23516 -5.49079 2.28156 128 128 128
-2.6675 -6.71128 0.175891 128 128 128
-1.17178 -6.38408 0.234357 128 128 128
-1.06857 -6.39657 0.0185519 128 128 128
-0.307857 -6.75746 -0.146011 128 128 128
-1.49329 -7.95739 1.13546 128 128 128
-0.921578 -1.43629 -0.423531 128 128 128
-2.61974 -6.62378 -0.0640004 128 128 128
-2.53007 -5.58467 -0.994776 128 128 128
-0.300306 -4.36499 1.84145 128 128 128
-1.46015 -6.20771 -0.170202 128 128 128
-1.11385 -4.07467 2.09981 128 128 128
-3.15964 -5.08051 0.410344 128 128 128
-1.26018 -6.33253 2.03417 128 128 128
-0.706073 -4.89917 -1.08155 128 128 128
-4.17094 -3.64226 1.21188 128 128 128
-0.86064 -4.52386 -1.24428 128 128 128
-2.57325 -5.48946 -0.993768 128 128 128
2.01537 -7.60134 0.118516 128 128 128
-1.43132 -2.13226 -0.577931 128 128 128
-1.5572 -1.61978 0.0930229 128 128 128
-1.06035 -1.89475 -0.511413 128 128 128
-1.48142 -1.32673 -0.477492 128 128 128
-3.68403 -1.779 1.72681 128 128 128
-3.43528 -2.59601 1.21247 128 128 128
-2.42051 -3.64242 2.04476 128 128 128
-2.4777 -2.96639 1.98341 128 128 128
-3.40236 -2.54916 0.409964 128 128 128
-3.2313 -3.12762 0.974359 128 128 128
-1.43477 -1.68 -0.300752 128 128 128
-1.79905 -0.798572 -0.554439 128 128 128
-3.46793 -2.09553 2.27004 128 128 128
-2.53526 -3.84578 2.07189 128 128 128
-3.17087 -3.44398 0.970872 128 128 128
-2.07532 -3.34271 1.77125 128 128 128
-2.55397 -4.22377 2.12555 128 128 128
-2.56048 -2.84236 -0.395474 128 128 128
-1.84194 -0.655091 -0.500991 128 128 128
-1.70212 -1.62727 -0.50188 128 128 128
-2.48219 -3.8161 2.00811 128 128 128
-1.83504 -3.47084 2.02413 128 128 128
-1.52804 -1.057 -0.462024 128 128 128
-3.10493 -2.59177 1.86516 128 128 128
-3.19527 -3.46082 0.98902 128 128 128
-3.3778 -3.48171 0.490316 128 128 128
-3.77519 -2.01597 0.726036 128 128 128
-3.09687 -1.34291 2.08905 128 128 128
-2.57746 -3.00582 1.91024 128 128 128
-2.99961 -2.61708 1.94508 128 128 128
-3.33223 -3.57035 0.379519 128 128 128
-2.26088 -2.85403 1.86798 128 128 128
-2.48042 -2.96713 1.98625 128 128 128
-2.13184 -2.39752 2.00611 128 128 128
-3.36563 -1.90078 0.756505 128 128 128
-3.05708 -3.25531 0.448258 128 128 128
-1.81889 -1.1356 -0.00254437 128 128 128
-1.56051 -1.36216 -0.499478 128 128 128
-0.846198 2.10925 0.246622 128 128 128
-1.52342 -0.213432 -0.619753 128 128 128
-2.56962 0.940087 1.67613 128 128 128
-1.66959 0.964739 -0.374059 128 128 128
-1.53352 -0.212549 -0.625656 128 128 128
-1.82347 -0.327061 -0.406178 128 128 128
-0.638412 1.6345 0.465262 128 128 128
-3.34315 0.210285 1.80811 128 128 128
-0.563065 -7.55203 0.137088 128 128 128
-1.18163 -6.30959 0.171659 128 128 128
-1.59293 -6.06234 0.187501 128 128 128
1.24472 -6.8948 2.31644 128 128 128
0.0816588 -6.18947 2.15912 128 128 128
-0.421063 -4.66196 -0.0537928 128 128 128
-0.0701105 -5.76459 2.00518 128 128 128
-0.439973 3.06593 -0.00450465 128 128 128
-0.885757 2.81681 -0.66709 128 128 128
-1.06338 2.08922 -0.517091 128 128 128
-0.429638 3.01434 -0.298816 128 128 128
3.26998 -6.49406 2.42244 128 128 128
-0.558236 -6.97326 -0.188091 128 128 128
-0.804749 2.08008 -0.505107 128 128 128
-0.913653 3.98869 -0.474079 128 128 128
-0.400676 2.94568 -0.264483 128 128 128
-2.36975 -4.98489 -0.201156 128 128 128
-0.242225 -3.85917 2.01675 128 128 128
-0.900216 -3.76795 1.8068 128 128 128
-1.67389 -4.34515 2.15802 128 128 128
-0.921257 3.52938 -0.434225 128 128 128
1.12594 2.59763 1.66723 128 128 128
1.04888 3.35924 0.333028 128 128 128
1.09684 3.4041 -1.11979 128 128 128
-0.152736 2.98303 0.341824 128 128 128
-0.693606 1.77297 0.411719 128 128 128
0.531679 -6.81182 2.45465 128 128 128
2.92185 -7.37993 0.522163 128 128 128
-2.21578 0.881867 1.7339 128 128 128
-1.13437 -4.86172 2.3374 128 128 128
0.0926467 -5.89781 2.21492 128 128 128
0.827312 -4.44169 2.09168 128 128 128
-0.181198 -4.40948 2.18315 128 128 128
0.650425 -2.83431 0.0751632 128 128 128
1.09414 -5.89019 2.12745 128 128 128
1.31171 -5.3718 2.83098 128 128 128
-2.37422 -5.4766 -0.837297 128 128 128
-2.87301 -6.87686 2.35131 128 128 128
0.714926 3.30727 -0.481735 128 128 128
-0.0152569 3.12583 0.362671 128 128 128
2.01208 4.05087 -0.0607963 128 128 128
-0.67589 1.6721 -0.860893 128 128 128
0.219922 -3.39188 1.16075 128 128 128
-0.263862 -3.92786 2.08113 128 128 128
-3.41164 -3.17497 0.915168 128 128 128
-0.232506 -5.01686 2.32091 128 128 128
-1.46547 -7.86918 2.29158 128 128 128
-2.99568 -6.79488 -0.842233 128 128 128
-4.25315 -4.46606 3.3029 128 128 128
-0.172196 -4.51189 2.00512 128 128 128
-2.60896 -3.0064 1.95112 128 128 128
-3.01476 -3.93522 2.14038 128 128 128
0.80894 1.93981 1.48654 128 128 128
1.21334 2.5585 1.74251 128 128 128
1.58003 2.06623 0.348756 128 128 128
-3.1268 1.5958 1.93136 128 128 128
-3.432 1.91644 1.61957 128 128 128
-2.39787 2.29295 -0.397623 128 128 128
-4.1655 2.0939 0.199569 128 128 128
-0.936048 2.29936 -0.167137 128 128 128
-3.21869 -3.63427 -0.296573 128 128 128
-3.21097 -3.14059 0.449988 128 128 128
-0.54712 -4.36936 -0.890604 128 128 128
-0.623658 -3.6694 2.05575 128 128 128
-0.194271 -4.61142 2.02144 128 128 128
-2.22976 -4.98202 -0.978646 128 128 128
1.01192 -6.63547 1.25824 128 128 128
1.28089 -5.93534 2.21628 128 128 128
0.963136 -5.69438 2.14934 128 128 128
55.8684 -2.22624 -8.19182 128 128 128
62.9342 -1.77395 -9.70851 128 128 128
57.326 0.0637378 -28.8233 128 128 128
108.435 -20.128 -30.9296 128 128 128
181.847 -37.5204 -106.987 128 128 128
156.15 -41.379 -89.3435 128 128 128
94.6685 -24.4452 -31.3418 128 128 128
69.0207 13.1716 -44.6001 128 128 128
194.927 26.8811 -34.2327 128 128 128
47.0711 0.640613 -13.7933 128 128 128
72.4612 14.2083 -46.6942 128 128 128
0.406574 -6.28255 -0.811785 128 128 128
0.698001 -6.17104 -0.65378 128 128 128
0.336053 3.02227 -0.954446 128 128 128
1.48896 -4.50613 -0.51452 128 128 128
6.59091 -4.2716 -0.193305 128 128 128
0.863501 3.88428 1.77159 128 128 128
0.102255 -6.14568 -0.0929408 128 128 128
0.947182 -4.53249 0.229641 128 128 128
117.163 2.83864 -18.7903 128 128 128
1.6256 -3.64141 2.17025 128 128 128
-3.02014 -4.99588 2.28771 128 128 128
-2.58968 -4.8716 -0.0721493 128 128 128
-0.813313 -8.76641 2.53422 128 128 128
-0.350217 -8.33696 1.08081 128 128 128
-2.31363 -9.04938 2.44948 128 128 128
2.20335 -7.28764 0.346145 128 128 128
-1.90288 -7.7001 0.0572262 128 128 128
2.21854 -7.28903 0.347622 128 128 128
-0.814815 3.47518 -0.349937 128 128 128
-1.8958 3.07454 -0.357271 128 128 128
-1.91665 2.50531 1.64223 128 128 128
1.29415 3.83264 2.22669 128 128 128
-0.922716 1.8941 -0.460222 128 128 128
-0.493884 0.997057 -0.558335 128 128 128
0.23829 3.09685 -0.299138 128 128 128
0.326169 3.63626 1.72481 128 128 128
2.96006 -7.20025 0.262723 128 128 128
-1.41996 -8.50161 2.31635 128 128 128
-2.5582 -8.00576 2.41532 128 128 128
2.3052 -7.04683 -0.150136 128 128 128
-0.545538 -6.2161 2.12127 128 128 128
0.118154 -5.25213 -0.166118 128 128 128
-0.437398 -4.6549 -0.0339481 128 128 128
-0.720717 -4.7728 -0.052525 128 128 128
-0.877638 -4.43663 -0.0704909 128 128 128
2.32237 -6.40873 2.38615 128 128 128
-0.751551 -4.41524 -0.073135 128 128 128
-0.510241 -4.63565 -0.0686525 128 128 128
-1.07218 -6.1129 2.09482 128 128 128
-0.109814 -5.90546 1.98007 128 128 128
-1.54102 -6.76632 -1.17417 128 128 128
-1.41799 -7.70329 2.35996 128 128 128
-0.697313 -6.797 2.23755 128 128 128
-0.661122 3.39778 -0.0429189 128 128 128
2.78477 4.47824 -0.0217555 128 128 128
2.12807 3.61301 -0.432671 128 128 128
-0.543922 3.04418 -0.120283 128 128 128
-0.856336 3.06625 -0.370156 128 128 128
-0.15333 2.97228 -0.0498869 128 128 128
0.70627 2.18276 1.74652 128 128 128
0.810185 3.24746 0.338123 128 128 128
0.0667516 3.33737 0.12483 128 128 128
2.15583 3.50961 1.2108 128 128 128
0.434557 3.0651 1.69166 128 128 128
-2.59231 -5.68633 -0.571045 128 128 128
-0.495651 -7.90665 1.22732 128 128 128
-1.46129 -8.47563 2.3517 128 128 128
-2.40357 -6.03252 0.196829 128 128 128
2.83327 -7.55424 0.776819 128 128 128
2.70878 -7.60943 0.813304 128 128 128
2.79016 -7.58326 0.784447 128 128 128
-1.02436 -7.84764 0.354048 128 128 128
2.95111 -7.57393 0.797404 128 128 128
-0.0120235 3.06132 0.608656 128 128 128
1.58154 3.30659 1.14962 128 128 128
-1.50591 1.25634 0.520865 128 128 128
-0.940811 2.26878 -0.17745 128 128 128
-2.2758 2.82513 1.84828 128 128 128
1.1484 2.92789 1.4677 128 128 128
1.55221 3.37728 -1.15001 128 128 128
0.817497 3.33881 -0.0534762 128 128 128
2.76628 4.41933 -0.364136 128 128 128
-1.41524 3.52577 1.98587 128 128 128
2.13786 3.60586 -0.417403 128 128 128
0.718067 3.32807 -0.555825 128 128 128
-0.980986 1.97529 -0.477802 128 128 128
1.63116 2.11883 0.352774 128 128 128
-1.02335 2.17676 1.7663 128 128 128
-0.369628 1.33196 1.29237 128 128 128
0.203884 -8.11341 0.196616 128 128 128
-2.58178 -6.49411 -1.15126 128 128 128
-2.61655 -5.06446 -0.183712 128 128 128
-3.2187 0.245823 1.87215 128 128 128
-4.67158 -0.84052 2.33836 128 128 128
-4.38535 -0.302926 -0.461535 128 128 128
-4.26402 1.13404 -0.444806 128 128 128
-3.38295 0.427942 1.80054 128 128 128
-3.75043 -0.340912 0.0405072 128 128 128
-2.07159 0.111077 1.88629 128 128 128
-2.9567 -0.767723 1.87773 128 128 128
-3.55293 1.00847 1.81897 128 128 128
-4.4352 1.62484 -0.630653 128 128 128
-3.36188 -0.0911394 1.68153 128 128 128
-1.43534 1.26729 1.28238 128 128 128
-3.1644 -0.823921 1.88667 128 128 128
-3.70229 -0.876101 1.8741 128 128 128
-1.78809 -1.07079 -0.160228 128 128 128
-1.83613 -1.03486 -0.435499 128 128 128
-1.76429 -0.490283 -0.404435 128 128 128
-2.36927 -1.17621 1.91812 128 128 128
-2.36148 -1.17509 1.91485 128 128 128
-1.61905 -0.500173 -0.367436 128 128 128
-1.78428 -0.76109 -0.297753 128 128 128
-1.76789 -0.890278 -0.535958 128 128 128
-1.79326 -0.980557 -0.184361 128 128 128
-1.82142 -0.900996 -0.190486 128 128 128
-1.80153 -1.07679 -0.164451 128 128 128
-4.10859 0.324041 0.0703484 128 128 128
-4.03737 -0.0616728 -0.462544 128 128 128
-4.1789 0.496201 1.58747 128 128 128
-4.12567 0.554316 1.50079 128 128 128
-1.68372 1.10749 -0.108266 128 128 128
-3.89401 0.196193 -0.5426 128 128 128
-3.69484 0.70624 -0.283816 128 128 128
-3.32404 -0.234047 2.17354 128 128 128
-4.2787 0.352484 1.74718 128 128 128
-3.41958 -0.197595 2.21025 128 128 128
-3.36347 -0.343658 1.86848 128 128 128
-4.14948 0.351842 0.0645269 128 128 128
-4.12407 0.320967 1.6764 128 128 128
-4.22366 2.47661 0.584195 128 128 128
-4.85675 1.48097 -0.48168 128 128 128
-4.50643 -0.197695 0.0505928 128 128 128
-3.78847 -0.843751 1.60325 128 128 128
-1.81713 -0.76122 -0.297868 128 128 128
-1.84501 -1.14564 0.00334772 128 128 128
-1.85007 -1.02621 -0.0966645 128 128 128
-3.04782 -1.13713 -0.659749 128 128 128
-2.5121 -7.25333 2.46809 128 128 128
1.16998 -7.80891 0.773762 128 128 128
-1.26355 -6.52658 0.0321669 128 128 128
-1.8635 -6.49721 1.99251 128 128 128
-0.113196 -4.26992 -0.181481 128 128 128
-0.0962184 -7.42774 -0.104811 128 128 128
-0.163279 -8.31175 2.41012 128 128 128
-0.446782 -4.52435 -0.0824871 128 128 128
-0.868496 -4.57896 -0.0669076 128 128 128
-0.451611 -4.41563 -0.207089 128 128 128
-2.21281 -7.37546 -0.485949 128 128 128
-1.90256 -6.48889 -0.099332 128 128 128
-0.0522128 -7.16411 2.28918 128 128 128
-2.72047 -6.29208 -0.287915 128 128 128
-2.78177 -5.91685 -0.420386 128 128 128
1.88163 -5.85916 2.22393 128 128 128
1.75178 -6.63712 2.3218 128 128 128
0.202008 3.24114 -0.00658329 128 128 128
1.02972 3.25161 -0.0522686 128 128 128
0.597752 -7.32478 2.36761 128 128 128
-1.40359 -6.42956 2.10864 128 128 128
-2.87228 -5.32689 2.30737 128 128 128
-1.44822 -7.97445 2.26936 128 128 128
-2.35526 -5.45723 -0.825752 128 128 128
-2.23409 -5.4212 2.19695 128 128 128
0.28105 -5.27022 -0.17663 128 128 128
-0.750231 -5.87048 2.24555 128 128 128
0.789116 -7.20526 -0.10591 128 128 128
-0.394431 -4.74219 -0.067081 128 128 128
-3.11511 -5.92458 2.36155 128 128 128
-3.94856 -6.07022 3.04162 128 128 128
-2.33073 -4.35517 -0.501488 128 128 128
-2.68775 -7.6481 2.40872 128 128 128
2.24343 -7.30293 0.347726 128 128 128
1.16467 -7.75258 -0.733598 128 128 128
2.82944 -7.4574 0.537341 128 128 128
2.2887 3.88154 -0.398047 128 128 128
-0.99751 1.30194 -0.469967 128 128 128
-0.047894 2.87255 1.76551 128 128 128
1.26079 3.13285 -1.3869 128 128 128
1.1915 2.08983 -1.09672 128 128 128
-3.42957 1.07053 1.86028 128 128 128
-2.35397 -4.93952 2.09211 128 128 128
-2.55417 -7.97544 2.40101 128 128 128
-2.03079 -5.34169 2.19601 128 128 128
0.10756 -5.92638 2.2137 128 128 128
-1.01115 -7.62077 2.3958 128 128 128
-3.17995 -5.10209 0.41671 128 128 128
-0.511087 -4.40341 2.06336 128 128 128
-1.65329 -7.96021 2.26453 128 128 128
-2.69525 -6.85286 1.91149 128 128 128
125.011 -24.2563 -54.8207 128 128 128
146.5 14.5858 -77.8805 128 128 128
1.18882 2.10186 -0.520756 128 128 128
0.543447 3.28985 0.469471 128 128 128
-0.0143851 3.1197 0.281816 128 128 128
1.21775 2.14892 -1.12865 128 128 128
-0.612355 1.56805 0.261408 128 128 128
4.56783 -4.81484 0.309818 128 128 128
-0.724484 1.70403 0.389977 128 128 128
-0.823845 3.10486 -0.501233 128 128 128
-2.09161 2.69542 -0.656414 128 128 128
1.28562 2.23966 -0.898991 128 128 128
-0.188478 -4.52179 1.99933 128 128 128
-0.737355 -5.24504 2.08655 128 128 128
-2.69576 -8.87064 0.28309 128 128 128
-3.13808 -5.71131 0.686541 128 128 128
-0.366229 -8.24811 1.10897 128 128 128
-2.73724 -5.84697 2.26211 128 128 128
-2.80033 -5.9429 -0.558316 128 128 128
-2.81243 -5.9692 0.213108 128 128 128
1.08456 1.73442 -0.470363 128 128 128
1.06562 1.6463 -0.498332 128 128 128
-0.17977 3.1174 0.615823 128 128 128
-0.82542 1.98862 -0.000547686 128 128 128
-0.0485334 3.04795 -0.150844 128 128 128
-2.06677 2.52154 1.83753 128 128 128
1.79698 3.61337 -0.369516 128 128 128
-0.130178 3.30428 1.64599 128 128 128
2.02967 -7.61748 0.118148 128 128 128
-0.555655 1.17704 -0.821867 128 128 128
0.421751 2.73428 1.55646 128 128 128
-3.25606 1.00353 1.7695 128 128 128
-2.66762 1.13596 1.27794 128 128 128
-1.91299 -6.44305 -0.469408 128 128 128
-0.0900213 -4.32161 -0.201178 128 128 128
-1.70704 -6.95721 0.08041 128 128 128
-2.61771 -6.90723 -0.0285677 128 128 128
-0.0933083 -8.42312 2.4541 128 128 128
-1.5486 -6.78727 2.28617 128 128 128
-0.101501 -4.30271 -0.193215 128 128 128
-2.724 -5.81514 2.25351 128 128 128
-0.781792 -5.4945 2.2285 128 128 128
-1.44112 -7.52527 2.33145 128 128 128
-1.57421 -7.5824 2.04578 128 128 128
1.97669 -7.31537 0.142612 128 128 128
-1.4799 -7.95978 2.30297 128 128 128
2.53326 -5.98651 2.36107 128 128 128
-0.444326 -4.68416 -0.0601195 128 128 128
13.9769 -8.87591 5.22726 128 128 128
221.155 12.8578 -26.4357 128 128 128
-0.532052 -4.14745 -0.0740038 128 128 128
-4.59435 1.721 -0.494066 128 128 128
-1.92079 2.30347 1.77537 128 128 128
-2.79465 1.61835 1.63592 128 128 128
-1.70325 1.8559 1.38154 128 128 128
-1.69917 1.49674 0.150703 128 128 128
-2.02916 1.44522 0.529942 128 128 128
-1.46411 2.74263 -0.431143 128 128 128
-2.01969 2.46966 1.81386 128 128 128
-1.8002 -1.0182 -0.088584 128 128 128
-3.93297 -2.05165 0.75381 128 128 128
-2.89848 -1.93664 1.89629 128 128 128
-3.10892 -3.39256 0.976004 128 128 128
-3.43327 -3.09229 -0.30921 128 128 128
-3.65741 -3.07994 -0.499029 128 128 128
-2.93765 -4.21537 2.35074 128 128 128
0.591424 -7.33613 0.310363 128 128 128
-1.91801 -5.16264 2.01196 128 128 128
1.03329 -6.54006 1.72641 128 128 128
-0.548671 -7.04271 2.31791 128 128 128
-1.64727 -4.83308 2.19765 128 128 128
-0.73442 -5.92876 2.26603 128 128 128
-2.04223 -6.52396 2.28503 128 128 128
-2.37141 -5.00199 2.1189 128 128 128
-1.3622 -6.13183 2.28731 128 128 128
-0.997628 -7.74657 0.164671 128 128 128
-0.398849 -8.28613 1.21002 128 128 128
0.263318 -5.20977 -0.168827 128 128 128
-0.10825 -4.29391 -0.188096 128 128 128
-0.0411523 -6.62133 2.06504 128 128 128
1.34126 -5.55372 2.23948 128 128 128
0.862091 -6.94316 2.33131 128 128 128
-1.69084 1.52578 0.264005 128 128 128
-1.3686 -0.446073 -0.531515 128 128 128
-3.70358 -0.12283 -0.412026 128 128 128
-1.77282 -0.620595 -0.00856584 128 128 128
-1.65011 0.944053 -0.371632 128 128 128
-2.45377 0.45792 1.91795 128 128 128
-4.22862 0.380388 -0.173471 128 128 128
-1.56654 0.832479 -0.255689 128 128 128
-1.85131 -0.622956 -0.0111593 128 128 128
-1.84928 -0.623178 -0.00730004 128 128 128
-2.92603 -0.155803 1.8661 128 128 128
-3.36971 0.889396 1.73567 128 128 128
-2.77151 -0.00434032 2.02157 128 128 128
-3.70328 0.185327 -0.498035 128 128 128
-1.76774 1.40075 1.06154 128 128 128
-0.575141 -6.92073 2.29227 128 128 128
-2.45186 -5.84912 -1.1168 128 128 128
-2.16923 -7.88716 0.183637 128 128 128
-2.68476 -4.68109 2.04566 128 128 128
0.859341 -6.45238 2.39074 128 128 128
0.212236 -4.98663 -0.157676 128 128 128
-0.462909 -4.34675 -0.192167 128 128 128
-2.67786 -6.24822 -0.768971 128 128 128
-3.02969 0.311166 2.03284 128 128 128
-2.27129 -0.50994 2.06783 128 128 128
-1.9346 -0.636998 -0.526784 128 128 128
-1.60999 -0.651031 -0.510116 128 128 128
-1.43782 -0.517008 -0.487016 128 128 128
-1.30443 -0.487617 -0.48616 128 128 128
-1.74466 -0.301602 -0.443493 128 128 128
-1.86939 -0.724972 -0.2209 128 128 128
-2.13275 0.0440479 1.90717 128 128 128
2.14188 3.50488 1.47608 128 128 128
-0.105655 2.9871 -0.146694 128 128 128
-1.03719 1.34344 -0.462356 128 128 128
-0.541408 1.12533 -0.568793 128 128 128
1.05956 3.09581 -1.07092 128 128 128
0.255625 -7.33016 0.0314016 128 128 128
12.7929 -10.8415 0.101881 128 128 128
4.16729 -5.58741 -0.228743 128 128 128
1.7475 -7.25276 0.0617726 128 128 128
-0.554016 -7.66587 0.158186 128 128 128
-0.620407 -6.81665 2.33749 128 128 128
-0.6138 3.2059 -0.525326 128 128 128
-1.10045 2.81108 1.81584 128 128 128
-0.851103 1.80602 0.220056 128 128 128
-1.02383 1.3248 -0.519941 128 128 128
2.24042 3.69974 1.56254 128 128 128
1.30534 3.24887 0.597695 128 128 128
-0.413523 2.95354 0.613179 128 128 128
0.604103 3.34725 1.81641 128 128 128
-1.85427 3.24747 0.00256468 128 128 128
1.20707 2.15561 -0.702964 128 128 128
0.801531 2.99345 1.90263 128 128 128
-1.99558 3.08687 -0.391641 128 128 128
-0.723127 2.39965 1.81018 128 128 128
-0.293075 3.20027 0.0653824 128 128 128
0.187326 2.82149 1.82137 128 128 128
0.766694 3.22907 -0.155222 128 128 128
-0.951483 2.205 -0.509307 128 128 128
-2.574 2.56779 -0.107509 128 128 128
1.18266 3.43743 0.383586 128 128 128
-2.15879 2.43663 0.359996 128 128 128
-0.790733 1.93467 -0.0517654 128 128 128
2.21643 3.7627 -0.442875 128 128 128
-1.21811 3.18092 -0.213088 128 128 128
-0.65304 3.16079 -0.130383 128 128 128
-3.60622 -0.365323 1.86927 128 128 128
-3.79626 0.732068 1.79111 128 128 128
-2.65733 0.51386 0.682211 128 128 128
-3.18798 1.87985 1.59268 128 128 128
-3.37456 2.14012 0.476109 128 128 128
-3.92355 1.93827 0.179517 128 128 128
-4.23655 0.20877 -0.322856 128 128 128
-4.37343 -0.20493 0.0350092 128 128 128
-4.02233 0.442894 0.0106633 128 128 128
-1.46134 2.19095 1.70978 128 128 128
-3.15545 0.209743 1.82192 128 128 128
-3.32589 -0.344137 1.84822 128 128 128
-4.02962 0.28714 1.62545 128 128 128
-4.11212 0.35889 -0.176323 128 128 128
-4.2925 0.224783 -0.330745 128 128 128
-3.76767 0.195131 -0.503467 128 128 128
-1.63369 1.41271 0.110446 128 128 128
-1.6121 1.41517 0.0898637 128 128 128
-3.32976 1.84963 1.77499 128 128 128
-2.12667 0.928591 1.72008 128 128 128
-3.99385 0.480251 1.43566 128 128 128
-4.51649 1.12667 0.00411367 128 128 128
-4.57879 0.542372 -0.0249042 128 128 128
-4.20359 0.214897 -0.310903 128 128 128
-4.06601 -0.0279794 0.0710906 128 128 128
-3.5196 -0.311619 1.96179 128 128 128
-4.20363 -0.201287 0.0448237 128 128 128
-1.76036 0.94182 1.8291 128 128 128
2.69965 -6.70237 2.2734 128 128 128
-0.639623 -6.74732 0.204245 128 128 128
0.617422 -8.22837 2.4469 128 128 128
1.05358 -4.46629 2.18437 128 128 128
-2.46814 -8.54694 1.25745 128 128 128
-2.77699 -5.11808 2.13025 128 128 128
1.38683 -5.88807 2.19784 128 128 128
0.654849 -4.21501 2.10903 128 128 128
2.31114 -7.3306 2.25344 128 128 128
0.646564 -4.17629 2.08847 128 128 128
1.01262 -4.50754 2.14581 128 128 128
-1.14008 -4.2371 -0.208579 128 128 128
0.961439 -4.61258 2.20327 128 128 128
-1.1327 -4.22094 -0.209792 128 128 128
-1.277 -4.39867 -0.79334 128 128 128
1.14013 -5.43101 2.24043 128 128 128
0.964155 -4.07308 2.10263 128 128 128
1.06151 -5.96673 2.20354 128 128 128
1.04895 -6.61392 2.27832 128 128 128
1.16136 -5.68471 2.2637 128 128 128
143.51 -34.8592 -49.2296 128 128 128
60.8099 -8.94211 -6.6521 128 128 128
151.541 47.601 -54.0515 128 128 128
210.265 66.9971 -71.5966 128 128 128
-2.96494 -5.55097 1.00224 128 128 128
-0.63138 -6.00595 2.24356 128 128 128
-2.45895 -7.40581 2.39406 128 128 128
-3.12947 -5.71502 1.08229 128 128 128
-0.984653 -6.96973 2.38467 128 128 128
1.10742 -5.56559 2.10082 128 128 128
-2.45294 -9.53191 2.64902 128 128 128
0.114986 -8.19157 0.702186 128 128 128
-2.29813 -8.93234 2.41293 128 128 128
-0.223723 -4.86193 -0.156036 128 128 128
0.192109 -4.9201 -0.177359 128 128 128
-0.679191 -3.87058 -0.156651 128 128 128
-0.196866 -6.157 2.12096 128 128 128
-2.4886 -8.16572 2.40749 128 128 128
-2.48558 -8.20643 2.39943 128 128 128
-2.83597 -6.53195 -0.523784 128 128 128
2.21451 -6.61596 2.35617 128 128 128
-2.70671 -6.73139 1.54336 128 128 128
1.3821 -5.62911 -0.134927 128 128 128
3.15012 -7.50081 2.42158 128 128 128
-0.810677 3.45053 -0.434831 128 128 128
-2.11026 2.68694 -0.318737 128 128 128
-2.53675 -5.09236 -0.113765 128 128 128
-0.516347 -4.43286 2.07803 128 128 128
-1.15168 -4.03605 2.08465 128 128 128
-0.105002 -4.37818 2.04878 128 128 128
-1.17239 -4.84398 2.34789 128 128 128
-1.19485 -3.3581 1.90216 128 128 128
-2.28258 -3.84096 -0.952014 128 128 128
0.379891 -7.50783 0.140792 128 128 128
0.181641 -7.46345 0.0390463 128 128 128
1.21268 -5.96544 2.21257 128 128 128
-0.0793075 -7.44377 -0.0866366 128 128 128
1.21057 -7.9499 -1.0269 128 128 128
-2.28246 -7.92503 2.39464 128 128 128
-2.3671 -5.72574 -1.10332 128 128 128
1.13897 -6.75942 1.87021 128 128 128
-2.2739 -4.30453 -0.477076 128 128 128
0.956307 -7.23162 -0.13413 128 128 128
-2.34602 -8.36019 1.2104 128 128 128
-2.45019 -5.46046 -0.991672 128 128 128
-0.619947 -6.10466 2.29891 128 128 128
-1.18134 -6.1899 0.102766 128 128 128
-0.670711 -5.34736 -0.0614718 128 128 128
1.76249 -7.26632 -0.705987 128 128 128
0.825414 -7.22696 -0.122377 128 128 128
1.10413 -7.43692 -0.688323 128 128 128
1.77944 -7.74049 0.204937 128 128 128
2.28975 -7.0064 -0.146914 128 128 128
1.61265 -7.04529 -0.137671 128 128 128
1.58631 -7.04244 -0.0654071 128 128 128
1.7075 -7.80029 0.531889 128 128 128
-2.4485 -4.66499 -0.295765 128 128 128
4.06608 -6.59049 -0.413813 128 128 128
1.04063 -5.65814 -0.284464 128 128 128
1.41128 -6.71563 2.31552 128 128 128
3.28264 -6.02885 -0.0897146 128 128 128
0.269648 -8.11626 0.951074 128 128 128
3.50015 -5.95738 -0.0445186 128 128 128
3.69566 -5.96076 0.133966 128 128 128
-0.978566 2.80621 1.8426 128 128 128
0.663793 3.29933 -0.302384 128 128 128
-1.63225 1.68624 1.09425 128 128 128
1.34541 -5.95236 2.35374 128 128 128
-3.21211 -5.09922 0.720961 128 128 128
-0.216902 -7.64096 0.139903 128 128 128
-2.46724 -8.63582 1.22669 128 128 128
-2.8254 -6.92987 1.68581 128 128 128
2.33324 -6.97456 -0.152043 128 128 128
1.92426 -7.69387 0.29094 128 128 128
-2.42003 -8.34347 0.775484 128 128 128
1.84902 -5.86509 2.1991 128 128 128
1.7409 -7.08921 2.30402 128 128 128
-1.53788 2.1818 1.92917 128 128 128
-0.086254 3.59683 1.85275 128 128 128
-0.766819 1.88803 0.23044 128 128 128
1.38375 -5.64727 -0.0361302 128 128 128
1.25919 -7.85919 0.751014 128 128 128
-2.37187 -4.3789 -0.362966 128 128 128
-3.25201 1.7021 1.76679 128 128 128
-2.19877 0.883048 1.72718 128 128 128
3.13412 -7.63019 0.83392 128 128 128
0.17483 -8.13784 0.649888 128 128 128
-3.51236 -3.5123 1.05527 128 128 128
-2.33971 -3.62475 2.0465 128 128 128
-1.49471 -4.80635 2.14318 128 128 128
-1.71368 -6.36158 2.19726 128 128 128
-1.30242 -4.42973 -0.566325 128 128 128
-3.19793 -2.72945 -0.683063 128 128 128
-1.41867 -4.77783 -0.20453 128 128 128
-1.62468 -3.37898 1.84924 128 128 128
-2.60987 -5.69135 -1.04328 128 128 128
-3.56146 -2.59052 0.94048 128 128 128
-3.96998 -3.92762 1.17795 128 128 128
-3.23548 -3.14909 0.977056 128 128 128
-3.64472 -3.63288 0.514516 128 128 128
-1.84612 -0.910087 -0.186976 128 128 128
-2.01342 -0.0212533 1.80264 128 128 128
-3.63987 0.780254 -0.750107 128 128 128
-1.81704 -0.907 -0.556897 128 128 128
-1.47995 1.52575 0.572887 128 128 128
-1.66412 1.40865 0.160116 128 128 128
-1.99776 3.02114 -0.384193 128 128 128
1.28755 3.50366 0.761125 128 128 128
0.655667 3.31524 -0.290496 128 128 128
1.49306 3.14137 -0.391894 128 128 128
-2.14384 2.03558 -0.360037 128 128 128
-2.21653 -2.37252 2.05307 128 128 128
-2.58828 -2.98771 1.93062 128 128 128
