ply
format ascii 1.0
element vertex 1250
property float x
property float y
property float z
property uchar red
property uchar green
property uchar blue
end_header
2.24486 7.50831 -1.11317 128 128 128
2.81997 6.72881 -2.04165 128 128 128
2.25845 7.4891 -1.3228 128 128 128
4.99898 5.5881 -1.32066 128 128 128
5.01572 5.64593 -0.672775 128 128 128
5.27708 5.88764 -1.21623 128 128 128
0.369462 0.902161 -1.62007 128 128 128
0.290003 0.866979 -1.64837 128 128 128
-1.55274 6.43423 -1.33102 128 128 128
5.41397 6.0521 -0.96809 128 128 128
5.39326 5.94667 -0.568983 128 128 128
4.5742 5.2604 -0.40591 128 128 128
5.91436 6.8523 -1.66551 128 128 128
5.91066 6.7056 -1.36769 128 128 128
5.83031 6.81818 -1.4927 128 128 128
4.79829 5.29142 -0.501105 128 128 128
2.75816 7.93611 -0.167165 128 128 128
4.12624 4.926 -1.1674 128 128 128
6.04463 6.58002 -0.427938 128 128 128
2.93086 7.05956 -2.03836 128 128 128
3.28477 6.77966 -2.24899 128 128 128
4.29323 4.90052 -0.661977 128 128 128
4.44838 5.08651 -1.24943 128 128 128
4.40704 4.83768 -0.973657 128 128 128
4.55481 5.29492 -1.82077 128 128 128
4.49533 5.18342 -1.10089 128 128 128
4.12914 4.81707 -0.6187 128 128 128
6.06977 6.79561 -2.06673 128 128 128
4.49604 5.11793 -1.3337 128 128 128
5.68775 6.2412 -0.923567 128 128 128
4.27308 4.91422 -0.52765 128 128 128
4.22572 4.92903 -1.32971 128 128 128
2.97757 7.02517 -1.81166 128 128 128
4.11595 4.95633 -1.18943 128 128 128
2.98547 7.49969 0.0922041 128 128 128
2.92445 7.06348 -1.74919 128 128 128
5.97777 7.29675 -1.22199 128 128 128
2.97324 7.46514 0.0824832 128 128 128
6.01018 6.9095 -0.982555 128 128 128
4.29682 5.20719 -2.26204 128 128 128
4.46601 5.4962 -1.94642 128 128 128
4.59486 5.23059 -1.19229 128 128 128
4.06676 4.867 -1.24678 128 128 128
4.33668 5.23736 -1.76457 128 128 128
3.50297 9.42778 -0.565334 128 128 128
1.92636 5.52309 -1.38924 128 128 128
4.31648 9.31369 0.257286 128 128 128
2.90435 7.01199 -1.87333 128 128 128
4.14943 9.49798 0.121968 128 128 128
4.14194 9.2949 0.321192 128 128 128
6.09853 8.69751 -1.24751 128 128 128
4.65617 5.56088 -2.01562 128 128 128
5.03449 5.65624 -0.808223 128 128 128
4.52948 5.15116 -1.20545 128 128 128
4.57036 5.50777 -1.88203 128 128 128
4.11662 4.78381 -1.0658 128 128 128
6.21306 8.64372 -1.32185 128 128 128
1.45705 5.11236 -1.41931 128 128 128
3.30745 3.4917 -1.51781 128 128 128
3.50517 3.44996 -1.43213 128 128 128
4.0498 2.83769 0.579608 128 128 128
1.445 5.18278 -1.404 128 128 128
3.27835 3.90059 -1.19438 128 128 128
6.20734 7.37738 -2.22891 128 128 128
6.17092 6.78359 -0.0495404 128 128 128
0.975175 3.74657 -2.14746 128 128 128
0.492677 3.69008 -1.41685 128 128 128
5.57799 7.65528 0.110281 128 128 128
2.3663 2.99902 -2.35181 128 128 128
1.13196 2.96468 -0.24439 128 128 128
0.557793 3.64547 -1.3353 128 128 128
1.52298 2.41513 -0.397305 128 128 128
3.27923 3.45642 -1.57133 128 128 128
3.09817 6.85789 0.0267052 128 128 128
3.90949 7.84119 0.552748 128 128 128
3.89415 7.80447 -2.26634 128 128 128
5.93465 6.02353 -0.473947 128 128 128
2.52283 7.69778 -1.89267 128 128 128
6.1405 8.51657 -0.508744 128 128 128
4.99709 5.63538 -0.00720965 128 128 128
4.38196 5.07445 -1.24955 128 128 128
5.23276 5.88878 -0.756858 128 128 128
4.60468 5.52192 -2.28053 128 128 128
4.3085 5.08975 -1.32898 128 128 128
6.37483 7.17511 -0.859462 128 128 128
4.0911 5.02729 -1.95254 128 128 128
-1.02393 5.19212 0.0590599 128 128 128
-2.23348 4.73089 -0.720824 128 128 128
1.19515 2.89908 -0.229635 128 128 128
1.96671 2.76965 -0.887915 128 128 128
3.41923 3.25234 0.475226 128 128 128
1.45918 2.41283 -0.429036 128 128 128
0.979024 4.77047 -0.34724 128 128 128
1.51473 2.32218 -1.36881 128 128 128
1.64693 4.30865 -0.137443 128 128 128
1.60026 5.38902 -0.183597 128 128 128
1.89286 4.18434 0.123037 128 128 128
0.439761 3.48322 -1.3664 128 128 128
1.08304 2.94084 -0.268575 128 128 128
3.78927 3.56195 -2.41461 128 128 128
1.09949 2.94607 -0.270879 128 128 128
3.38696 3.2454 0.46697 128 128 128
1.00724 3.03119 -0.381069 128 128 128
1.39656 2.3107 -1.32894 128 128 128
2.70889 3.199 -2.44194 128 128 128
3.55382 4.11571 -2.23966 128 128 128
4.1775 4.8829 -1.04401 128 128 128
0.624702 3.47239 -1.22676 128 128 128
3.45225 4.07265 -2.21197 128 128 128
3.42268 4.02625 -0.576377 128 128 128
3.18829 3.45979 -1.49063 128 128 128
1.59734 4.19142 -0.350644 128 128 128
1.8899 2.84269 -1.00931 128 128 128
3.34276 3.23022 0.440673 128 128 128
0.696944 3.36068 -0.386309 128 128 128
3.7918 7.96682 -1.70807 128 128 128
1.54551 5.19909 -1.49336 128 128 128
1.41425 5.53901 -1.35607 128 128 128
1.67127 5.32589 -0.694801 128 128 128
1.29319 4.96619 -1.4366 128 128 128
1.46948 5.14614 -1.4308 128 128 128
4.48288 4.96869 -0.635423 128 128 128
4.28668 4.94045 -1.33723 128 128 128
4.63781 5.23122 -0.45482 128 128 128
1.27102 5.92343 -1.51109 128 128 128
4.73025 5.19696 -1.25401 128 128 128
4.70883 5.3305 -1.2434 128 128 128
5.13673 5.75246 -0.968986 128 128 128
5.16692 5.43891 -0.471226 128 128 128
4.88673 5.22858 -1.18947 128 128 128
3.34237 3.91353 -0.62562 128 128 128
4.47806 4.9759 -1.29891 128 128 128
4.69757 5.28553 -0.611372 128 128 128
4.50356 5.23845 -2.01596 128 128 128
5.10304 5.59575 0.121346 128 128 128
5.46125 5.79375 -1.20028 128 128 128
6.13192 7.03335 -2.21543 128 128 128
5.41346 5.98433 -0.591022 128 128 128
5.16205 5.75728 -0.968558 128 128 128
1.37145 2.41778 -0.476523 128 128 128
0.568318 4.37506 -0.264017 128 128 128
0.578185 4.34932 -0.394623 128 128 128
3.35275 3.23385 0.454467 128 128 128
0.726327 3.42344 -0.223775 128 128 128
0.365464 3.97505 -1.3203 128 128 128
0.579638 3.88789 -1.43535 128 128 128
4.78275 5.39144 -1.35841 128 128 128
3.37938 7.40066 -1.15253 128 128 128
0.531087 3.72526 -1.34324 128 128 128
-2.15946 2.59744 -1.02864 128 128 128
0.325404 3.89044 -1.31733 128 128 128
0.709566 4.03515 -2.38233 128 128 128
5.65507 5.74836 -0.78899 128 128 128
4.67456 5.32546 -1.34178 128 128 128
-0.00759416 3.71472 -2.31763 128 128 128
1.23865 2.08504 -1.24599 128 128 128
-2.17337 0.909683 -1.31212 128 128 128
0.430727 3.33975 -0.347695 128 128 128
-2.16791 1.89118 -2.31069 128 128 128
-1.36029 -0.972256 -0.543836 128 128 128
1.59484 2.49938 -0.904566 128 128 128
0.269535 3.50903 -1.36773 128 128 128
0.275566 3.50997 -1.36769 128 128 128
-0.688551 -0.479902 -1.67269 128 128 128
-0.53007 -0.920742 -1.91583 128 128 128
-0.351808 -1.52743 -0.729765 128 128 128
-1.55546 -3.07268 -0.542648 128 128 128
-0.764932 -1.60855 -2.09447 128 128 128
5.51069 6.06476 -1.25438 128 128 128
2.99963 7.06234 -2.12531 128 128 128
5.19189 5.78512 -1.03392 128 128 128
6.07773 6.59001 -0.421908 128 128 128
2.67209 7.55449 0.0397096 128 128 128
3.05676 7.81047 -1.15317 128 128 128
5.32856 5.93137 -0.570462 128 128 128
1.9314 5.55548 -0.0254037 128 128 128
3.12604 3.8041 -1.36515 128 128 128
1.04554 4.68788 -0.357792 128 128 128
1.49882 4.04939 -0.356602 128 128 128
0.992761 4.81 -0.319656 128 128 128
1.00536 4.64013 -0.362912 128 128 128
1.50665 4.06218 -0.345432 128 128 128
1.51289 4.14095 -0.326229 128 128 128
0.982485 4.6605 -1.1207 128 128 128
1.74208 4.33162 -0.271555 128 128 128
1.50028 5.12899 -0.351579 128 128 128
1.36257 5.41957 0.227431 128 128 128
1.51782 5.28118 0.00947287 128 128 128
1.47238 5.03379 -0.153756 128 128 128
3.36956 3.50471 0.256982 128 128 128
3.05771 3.70324 -1.01957 128 128 128
1.05042 4.67861 -0.40284 128 128 128
1.27923 5.20525 -0.243204 128 128 128
1.00406 4.63369 -0.365002 128 128 128
0.997472 4.74131 -0.354479 128 128 128
1.61475 4.23242 -0.173569 128 128 128
1.03566 4.68593 -1.12291 128 128 128
1.68795 4.96224 0.00386958 128 128 128
1.15586 2.0967 -1.13729 128 128 128
1.39653 2.29216 -1.56601 128 128 128
0.839055 1.79049 -2.23634 128 128 128
0.93419 1.81691 -0.944097 128 128 128
1.37826 2.27758 -1.25769 128 128 128
-0.999414 2.42359 -0.008434 128 128 128
-2.96496 -2.05142 -0.389254 128 128 128
1.28268 4.38468 -2.33758 128 128 128
3.088 3.50903 -1.51199 128 128 128
1.05837 3.46137 -2.31564 128 128 128
3.22697 3.81833 -0.237659 128 128 128
0.878191 3.89172 -0.245365 128 128 128
0.691603 3.46365 0.12638 128 128 128
3.311 3.85734 -2.22652 128 128 128
3.19893 3.79151 -2.20509 128 128 128
-0.513549 4.89574 -1.14748 128 128 128
0.976534 3.70616 -2.12537 128 128 128
0.611399 3.81486 -1.19885 128 128 128
0.712231 3.66931 -1.56135 128 128 128
-2.08445 -2.44901 -2.08266 128 128 128
-1.72339 -0.378917 0.155348 128 128 128
-1.92301 0.840725 -1.16849 128 128 128
0.913556 1.88524 -1.24459 128 128 128
1.00426 1.9449 -1.33764 128 128 128
0.950073 1.92866 -0.761229 128 128 128
0.960172 1.85465 -0.890586 128 128 128
1.04629 1.94109 -1.21316 128 128 128
0.138477 3.3424 -1.18394 128 128 128
-0.165752 3.528 -0.110894 128 128 128
1.97336 2.37362 -0.61177 128 128 128
1.97027 2.40546 -1.6537 128 128 128
1.63035 1.13943 -0.29864 128 128 128
4.1017 4.51685 -0.454274 128 128 128
0.544219 3.33996 -0.0254611 128 128 128
0.310533 4.21365 -1.49794 128 128 128
-3.26548 -1.48756 -0.0118133 128 128 128
-1.79001 -2.83499 0.0020331 128 128 128
-0.846006 -0.778542 -0.135462 128 128 128
-1.88412 0.15118 -0.00821155 128 128 128
-1.74506 -3.3112 -1.59665 128 128 128
-2.63522 -1.58584 -2.08333 128 128 128
-2.28622 -2.32436 -1.13065 128 128 128
-1.62056 -3.32831 -1.11482 128 128 128
-1.49266 -2.60719 -1.54733 128 128 128
-0.771505 -0.907118 -0.0176069 128 128 128
-2.16628 3.30515 -1.02133 128 128 128
-2.00589 2.66891 -1.02732 128 128 128
-2.09194 1.86882 -1.23822 128 128 128
-2.78383 2.50094 0.450633 128 128 128
-2.04057 -2.01758 -1.69179 128 128 128
-2.08871 0.789187 -1.37157 128 128 128
-2.03719 -1.83343 -1.20531 128 128 128
-1.97477 0.898449 -1.18671 128 128 128
-2.11306 0.722159 0.0626201 128 128 128
-2.07607 0.739952 0.0403018 128 128 128
1.06258 1.93837 -0.304544 128 128 128
1.95149 2.34563 -1.35728 128 128 128
1.51709 2.23924 -2.29251 128 128 128
2.09273 2.37409 -1.51109 128 128 128
1.79518 2.53391 -1.24594 128 128 128
2.03167 2.42623 -1.5538 128 128 128
1.89076 2.26524 -2.31725 128 128 128
1.9474 2.33641 -1.45774 128 128 128
1.93836 2.7275 -1.14408 128 128 128
1.98948 1.98055 -1.63597 128 128 128
-2.98626 -1.56117 0.023611 128 128 128
-1.57474 -3.27936 -0.415806 128 128 128
-0.761675 -0.879493 -0.030673 128 128 128
-1.72432 -2.80154 -1.49578 128 128 128
-0.346597 -1.48853 -1.16308 128 128 128
-1.47779 -3.13586 -0.529186 128 128 128
-1.55771 -3.14747 -1.92012 128 128 128
-0.333161 -1.50387 -0.970097 128 128 128
-0.216758 -1.377 -1.16057 128 128 128
-0.332542 -1.50301 -0.858141 128 128 128
-1.37873 -3.35737 -0.0103051 128 128 128
-2.41265 -2.48725 0.0650452 128 128 128
2.81794 3.07874 -1.45501 128 128 128
0.618317 1.51573 -2.32333 128 128 128
0.669258 3.54265 -0.190072 128 128 128
1.8916 2.66098 -2.41403 128 128 128
0.201116 3.37208 0.35117 128 128 128
-1.59459 5.98086 -1.35659 128 128 128
0.702157 1.91393 -2.02144 128 128 128
0.865292 2.53715 -0.30041 128 128 128
0.731068 1.95685 0.0125153 128 128 128
3.09609 3.57488 -1.03437 128 128 128
0.453487 3.17417 0.0606332 128 128 128
-0.346881 3.52413 -0.185401 128 128 128
-0.00175252 3.72216 -2.31601 128 128 128
2.86982 3.27316 -1.28359 128 128 128
0.920051 4.0729 -2.31437 128 128 128
0.0101506 3.81662 0.0851099 128 128 128
-0.241229 3.14146 -2.60071 128 128 128
-0.171908 3.2107 -0.0711033 128 128 128
-1.06986 2.89762 -0.484043 128 128 128
0.368181 3.26045 -0.284288 128 128 128
-2.21194 0.746044 -2.26476 128 128 128
0.376122 3.13308 -2.40057 128 128 128
-0.861467 3.27428 -0.410299 128 128 128
1.77511 1.9601 0.136806 128 128 128
-0.732073 3.09505 -0.103605 128 128 128
-0.803379 2.99399 -0.32574 128 128 128
0.0674753 3.8735 -2.25521 128 128 128
0.89161 1.86854 -1.44023 128 128 128
0.0924011 0.895064 -2.23434 128 128 128
-4.29014 -3.80481 -2.46746 128 128 128
1.2629 2.15415 -1.57485 128 128 128
1.07114 1.98881 -1.0966 128 128 128
1.84444 2.59901 -0.947274 128 128 128
1.3024 2.23317 -0.380309 128 128 128
0.279246 1.15403 -1.51252 128 128 128
-0.718632 2.57929 -0.095631 128 128 128
0.936618 1.8761 -0.377226 128 128 128
0.568859 3.32661 -0.363005 128 128 128
1.39274 2.30047 -0.335257 128 128 128
1.35069 2.20903 -0.332346 128 128 128
1.74636 2.60432 -1.2107 128 128 128
0.548766 3.24507 -1.30641 128 128 128
1.50822 2.28172 -0.893213 128 128 128
1.84683 2.50731 -1.22007 128 128 128
1.3563 2.2779 -0.501455 128 128 128
0.532958 3.2967 -0.298836 128 128 128
3.33305 3.78754 -0.988032 128 128 128
0.0522524 3.65169 -1.34047 128 128 128
-0.0127592 3.70966 -2.31262 128 128 128
-0.423338 3.46861 -0.243057 128 128 128
0.153901 3.3893 -0.143319 128 128 128
-0.496457 3.42152 -0.0269455 128 128 128
0.285533 4.23272 -0.188411 128 128 128
0.527083 -0.293535 -0.345067 128 128 128
0.411151 -0.244251 -0.970653 128 128 128
0.384028 -0.444452 -1.17627 128 128 128
-0.121765 2.3811 0.148327 128 128 128
2.18212 1.42831 -0.265616 128 128 128
-0.391669 3.18654 -0.208514 128 128 128
0.146617 2.82873 -0.0424214 128 128 128
0.348662 3.38405 -1.30698 128 128 128
-0.631826 3.2989 -0.0677644 128 128 128
-1.59517 2.5556 -0.166561 128 128 128
0.396388 3.32495 -1.57105 128 128 128
2.02859 1.38974 -0.240383 128 128 128
0.411163 2.1304 -0.421955 128 128 128
2.10134 2.25984 -1.61101 128 128 128
0.198741 4.36729 -0.275829 128 128 128
0.873609 3.36433 -2.3851 128 128 128
0.206353 2.86609 -0.0382086 128 128 128
-2.7639 -3.55782 -0.263749 128 128 128
-1.73651 -0.66275 0.0218906 128 128 128
-1.54435 0.0209591 -0.239205 128 128 128
-1.83939 -1.85508 -1.49235 128 128 128
-2.13164 0.399789 -2.30506 128 128 128
-2.02718 0.538263 -1.3564 128 128 128
-2.95137 -2.09846 -0.806081 128 128 128
-2.17528 0.321627 -2.28537 128 128 128
-1.73966 -2.9435 -0.971601 128 128 128
-2.06525 0.262308 0.0380569 128 128 128
-1.75162 0.988793 -1.72319 128 128 128
-2.07195 -2.62167 0.0193316 128 128 128
-2.97834 -1.3888 0.0595128 128 128 128
-2.7148 3.02741 0.610928 128 128 128
0.382935 2.33695 -0.495431 128 128 128
0.546809 2.2421 -0.333298 128 128 128
1.06927 3.82026 -0.0955994 128 128 128
1.26481 4.01601 -0.257494 128 128 128
1.28672 3.98373 0.23465 128 128 128
3.205 3.71431 -1.38213 128 128 128
4.50609 5.03841 -1.03658 128 128 128
2.90033 3.45621 -0.907029 128 128 128
2.88861 3.40586 -0.600965 128 128 128
2.82871 3.24913 -0.365273 128 128 128
2.90039 3.44792 -0.712641 128 128 128
3.01258 3.60116 -0.802608 128 128 128
3.00793 3.46847 -0.962854 128 128 128
2.8488 3.38093 -0.787664 128 128 128
4.7113 5.24547 -0.517698 128 128 128
2.88345 3.40934 -0.609652 128 128 128
3.02366 3.55926 -0.645869 128 128 128
4.6888 5.0859 -0.52312 128 128 128
2.63911 2.51893 0.260515 128 128 128
2.78546 3.07103 0.0587115 128 128 128
-1.80139 3.6183 -1.04539 128 128 128
1.35254 3.99471 0.140531 128 128 128
2.77386 2.91504 -0.361233 128 128 128
0.326065 4.26339 -0.31438 128 128 128
-1.11071 -2.52494 -0.334341 128 128 128
-1.39497 -2.48495 -1.44819 128 128 128
0.744206 1.92137 0.0592621 128 128 128
-1.98648 2.66906 -1.03062 128 128 128
1.59417 2.35114 -0.877493 128 128 128
4.0251 3.11338 -2.33154 128 128 128
4.29242 3.70398 -2.32849 128 128 128
4.70559 5.19911 -0.397798 128 128 128
3.9665 3.45661 -2.20596 128 128 128
4.67322 5.10107 -1.3002 128 128 128
4.73483 4.96238 -1.09766 128 128 128
4.58034 5.31843 -1.36612 128 128 128
3.16783 3.72487 -1.09988 128 128 128
3.25039 3.75941 -0.970786 128 128 128
2.97923 3.52447 -0.966184 128 128 128
4.38541 4.92055 -1.10534 128 128 128
3.2659 3.85691 -0.982944 128 128 128
4.35515 4.76768 -1.0272 128 128 128
4.46048 4.87768 -1.26454 128 128 128
4.59237 5.19028 -1.29143 128 128 128
4.28105 4.76748 -0.540117 128 128 128
4.36936 4.81646 -0.488981 128 128 128
4.11979 4.51392 -0.538093 128 128 128
4.28746 3.65233 0.0578505 128 128 128
4.46889 5.02167 -1.29954 128 128 128
4.73927 5.07117 -1.1884 128 128 128
4.18495 4.7137 -1.11545 128 128 128
0.774097 5.48888 -1.21498 128 128 128
1.06622 4.83636 -2.20254 128 128 128
-0.250668 -1.54307 0.0877964 128 128 128
-1.49008 -2.78334 -0.170923 128 128 128
-2.58086 -2.47294 -0.724253 128 128 128
-1.74257 -3.77604 0.240614 128 128 128
-0.242535 -1.35367 -1.0565 128 128 128
-1.48444 -2.64463 -1.44748 128 128 128
-0.604406 -1.64594 -0.950122 128 128 128
-1.63485 -3.08209 -0.00191192 128 128 128
-1.60328 -2.44598 -1.10119 128 128 128
-1.54222 -2.8032 -1.06255 128 128 128
-1.64016 -2.68298 -1.64878 128 128 128
1.01606 2.21404 -0.92324 128 128 128
-0.795816 2.35077 0.0666011 128 128 128
-0.784862 2.59059 0.0560198 128 128 128
1.65805 2.60619 -1.01491 128 128 128
0.265111 2.25178 -0.42764 128 128 128
0.352818 2.30741 -0.464134 128 128 128
1.67885 2.25705 -1.31618 128 128 128
0.256981 -1.13203 -1.11366 128 128 128
-0.181761 -1.43011 -0.768568 128 128 128
-0.378039 -1.4827 -1.08285 128 128 128
1.68036 2.28014 0.21196 128 128 128
1.30832 1.8862 -0.192162 128 128 128
0.349652 4.26995 -0.320853 128 128 128
2.79988 3.03451 -0.742145 128 128 128
2.67613 2.59719 0.268204 128 128 128
2.60693 2.18411 -0.128387 128 128 128
4.77155 5.09685 -1.11791 128 128 128
4.56363 4.99701 -1.21743 128 128 128
4.50462 4.99163 -1.30439 128 128 128
4.21663 5.19803 -1.78561 128 128 128
-1.05889 2.39005 0.00926708 128 128 128
-0.687092 0.642747 -0.0607987 128 128 128
0.929041 1.86036 -0.372035 128 128 128
4.44664 4.9118 -1.27969 128 128 128
2.63482 3.19787 -2.39549 128 128 128
2.72374 2.80784 -0.277127 128 128 128
2.87647 3.43059 -1.36382 128 128 128
2.906 3.36846 -0.878344 128 128 128
2.79997 3.08026 -2.0243 128 128 128
2.9135 3.41383 -0.894252 128 128 128
4.3081 3.68728 -2.23716 128 128 128
4.23788 4.73907 -0.962262 128 128 128
3.0303 3.84397 -0.912277 128 128 128
2.91948 3.46541 -0.652682 128 128 128
3.03878 3.67192 -0.890418 128 128 128
4.19616 4.73259 -0.582611 128 128 128
-0.394418 2.81298 0.0913016 128 128 128
4.64291 5.07799 -1.1078 128 128 128
3.31012 3.79732 -0.975238 128 128 128
2.87799 3.41765 -1.94739 128 128 128
2.96752 3.58463 -0.849809 128 128 128
4.18835 4.84358 -1.21833 128 128 128
2.91555 3.46419 -0.714792 128 128 128
3.12892 3.62101 -1.2878 128 128 128
4.70895 5.25081 -1.10768 128 128 128
4.40578 4.7918 -1.10158 128 128 128
4.68171 5.11107 -0.651564 128 128 128
3.37843 3.91334 0.107355 128 128 128
4.22317 3.44424 -0.503735 128 128 128
4.29066 5.08721 -1.94954 128 128 128
4.48759 4.96881 -1.29956 128 128 128
4.49009 5.26478 -2.00231 128 128 128
4.22268 4.73061 -0.565265 128 128 128
4.63369 5.13507 -0.510529 128 128 128
4.61864 5.01938 -1.31107 128 128 128
0.555352 3.26708 -0.20402 128 128 128
-0.874901 -0.853807 -0.0180427 128 128 128
-0.816532 -2.03848 -0.312599 128 128 128
-1.62585 -2.47819 -2.18585 128 128 128
-1.3438 -2.0251 0.0408843 128 128 128
0.356784 4.26766 -1.42665 128 128 128
2.74425 2.76641 -0.172867 128 128 128
0.0119326 3.92443 -2.28178 128 128 128
5.5506 6.10764 -1.31264 128 128 128
5.19195 5.57736 -0.58905 128 128 128
4.68809 5.12998 -1.09383 128 128 128
4.67038 5.22091 -0.608378 128 128 128
4.39863 4.89124 -1.14115 128 128 128
4.58586 5.38259 -1.9171 128 128 128
4.25617 4.84842 -1.86022 128 128 128
4.23636 5.10264 -1.82889 128 128 128
1.89201 1.09621 -0.0184613 128 128 128
2.76835 3.04415 -0.402089 128 128 128
1.64458 1.6235 -0.0673766 128 128 128
2.78533 3.07282 -0.440266 128 128 128
1.34216 2.24202 -2.35861 128 128 128
1.49804 2.3979 -0.986393 128 128 128
5.22135 5.69828 -0.75574 128 128 128
5.45818 5.87813 -0.785967 128 128 128
4.67336 4.85114 -1.4058 128 128 128
4.56002 4.96778 -1.35469 128 128 128
4.17063 4.822 -1.26641 128 128 128
4.0588 4.68196 -0.588599 128 128 128
4.23778 5.08276 -1.99963 128 128 128
4.15782 4.22565 0.0349078 128 128 128
4.36241 4.82295 -1.11373 128 128 128
1.38932 2.29014 -1.32681 128 128 128
-1.76574 3.22424 -0.00242569 128 128 128
1.07575 2.0044 -1.14896 128 128 128
1.12263 2.05649 -1.40848 128 128 128
0.850865 1.77216 -0.895177 128 128 128
-1.66201 3.1297 -0.0578052 128 128 128
1.31341 2.23845 -1.21094 128 128 128
-0.890452 2.49687 0.00702216 128 128 128
-1.19806 2.38657 0.0909827 128 128 128
-2.06809 0.784083 -1.32579 128 128 128
1.39428 2.2756 -1.32179 128 128 128
0.577375 2.23945 -0.390318 128 128 128
0.967269 1.80242 -1.64953 128 128 128
-2.07934 2.2743 0.0421381 128 128 128
-1.98513 2.65656 -1.85726 128 128 128
2.50735 1.35874 -0.691896 128 128 128
-1.91357 -2.01151 -0.851307 128 128 128
-1.66129 -2.68309 -2.07775 128 128 128
-3.05657 -2.23316 -1.18342 128 128 128
-2.49377 -2.34752 -0.72449 128 128 128
-1.88543 -2.65568 -0.487778 128 128 128
-3.26475 -1.4785 -0.377515 128 128 128
-2.31079 -2.02732 -0.037246 128 128 128
-2.72396 -1.8094 -0.690246 128 128 128
-2.60493 -2.19798 0.0221629 128 128 128
-2.40848 -2.10939 -0.818199 128 128 128
-1.91347 -2.09097 -1.68554 128 128 128
-0.994529 -2.15439 -2.21487 128 128 128
-0.999576 -2.14257 -2.2138 128 128 128
-1.5004 -2.89792 -2.1817 128 128 128
-4.12243 -0.945548 -0.746799 128 128 128
5.18608 5.96551 -0.813706 128 128 128
4.20528 4.76031 -0.577139 128 128 128
5.55924 6.0199 -0.873536 128 128 128
4.49834 5.09707 -1.88523 128 128 128
4.61631 5.14982 -1.84858 128 128 128
4.74029 5.47252 -1.79176 128 128 128
-1.83363 -0.512887 0.0389962 128 128 128
-1.54186 2.87292 -2.13885 128 128 128
-2.01922 0.940351 -1.35135 128 128 128
-1.81742 -0.462683 0.00459413 128 128 128
0.340368 -1.14856 0.0451772 128 128 128
-0.561971 -1.19906 -0.0346321 128 128 128
-2.14602 0.747571 -0.501784 128 128 128
-2.13939 -2.48645 -0.0957178 128 128 128
1.35051 4.03561 -0.16053 128 128 128
2.82832 2.97769 -0.621246 128 128 128
1.04266 4.08899 -2.14655 128 128 128
1.52079 4.14547 -0.257266 128 128 128
2.63713 2.39725 -2.11794 128 128 128
0.175783 3.81276 0.0419929 128 128 128
0.562251 4.01593 0.103451 128 128 128
1.55192 3.91588 0.165994 128 128 128
4.60883 5.35819 -2.06209 128 128 128
4.24273 5.08398 -2.00821 128 128 128
4.63241 4.72479 -1.20792 128 128 128
4.42339 4.9303 -1.22022 128 128 128
5.38195 5.73137 -1.03318 128 128 128
4.48911 5.14351 -1.34694 128 128 128
4.64802 5.30828 -1.82223 128 128 128
4.2013 4.77007 -0.584392 128 128 128
5.33818 6.10999 -0.710174 128 128 128
3.46999 3.73002 0.159505 128 128 128
5.07085 5.7679 -0.980846 128 128 128
4.2903 5.08708 -2.07948 128 128 128
5.46117 6.09575 -0.871699 128 128 128
5.21809 5.61193 -1.07265 128 128 128
-1.83055 5.47655 0.206987 128 128 128
-1.61704 6.11145 0.122277 128 128 128
0.425471 4.04794 -0.378258 128 128 128
-2.3063 6.74826 -1.23055 128 128 128
4.76383 7.55965 -1.92456 128 128 128
0.994877 1.9328 -1.39836 128 128 128
0.622963 1.59611 -1.13002 128 128 128
0.916915 1.90128 -1.49202 128 128 128
0.962375 1.89829 -1.49168 128 128 128
0.908692 1.85568 -1.45034 128 128 128
0.920159 1.89123 -1.45791 128 128 128
2.32202 2.25411 -0.137091 128 128 128
1.45288 2.26474 -2.26716 128 128 128
0.488769 1.37331 -1.14882 128 128 128
-1.95338 -1.77322 -1.42656 128 128 128
-2.76604 -1.84615 -1.44089 128 128 128
-2.78065 -1.88956 -0.0059304 128 128 128
-2.19534 1.5427 -1.78803 128 128 128
-2.31482 2.12714 -0.881009 128 128 128
-1.72349 1.63734 -0.0625632 128 128 128
-1.86144 -2.9688 -2.36729 128 128 128
3.18312 3.55546 -1.04387 128 128 128
0.0566356 3.66056 -1.34045 128 128 128
2.95219 3.35156 -0.755045 128 128 128
0.33272 4.25912 -1.44279 128 128 128
3.11237 3.78745 -1.04723 128 128 128
0.861754 2.69032 0.0498167 128 128 128
-3.59542 -0.850392 1.44496 128 128 128
0.407284 3.20145 -2.34294 128 128 128
2.17277 2.28204 -2.27412 128 128 128
0.429444 3.16845 -0.3075 128 128 128
-1.21721 1.49305 0.433054 128 128 128
0.401662 3.1391 -0.49629 128 128 128
3.22667 3.6923 -1.38282 128 128 128
4.08915 4.5553 -0.48979 128 128 128
4.84568 5.33472 -1.17538 128 128 128
4.06418 4.53188 -0.602548 128 128 128
4.06605 4.52896 -0.608083 128 128 128
4.23155 4.89073 -0.612229 128 128 128
4.66051 5.07539 -1.237 128 128 128
4.31071 5.18174 -1.81482 128 128 128
4.41203 5.25264 -1.3244 128 128 128
4.24868 4.55155 -1.27375 128 128 128
4.0763 4.58227 -0.564017 128 128 128
4.77916 4.79298 -1.41108 128 128 128
4.21202 4.92495 -0.63956 128 128 128
4.43344 5.13503 -1.09854 128 128 128
4.65238 5.0574 -1.21511 128 128 128
4.48057 4.89615 -1.21007 128 128 128
5.56364 4.24733 -1.08026 128 128 128
4.39885 4.55946 -1.97358 128 128 128
4.3709 4.78539 -1.24124 128 128 128
4.21222 4.81818 -1.27898 128 128 128
4.23784 4.83171 -2.2367 128 128 128
4.2207 5.10544 -1.98978 128 128 128
4.2283 3.44641 -0.488967 128 128 128
4.19821 4.65664 -1.10262 128 128 128
4.04724 4.55844 -1.46625 128 128 128
6.04473 6.57769 -0.548394 128 128 128
5.3686 6.05891 -1.1488 128 128 128
5.5207 6.22428 -1.06789 128 128 128
3.98854 5.22762 -1.02398 128 128 128
5.35616 4.5544 -2.44487 128 128 128
5.17194 4.14466 -2.60321 128 128 128
4.47129 4.66748 -1.0911 128 128 128
4.6288 5.329 -0.663124 128 128 128
-2.24862 0.768571 -1.94791 128 128 128
-1.47833 1.25961 0.0112195 128 128 128
-1.15576 0.849236 0.0306813 128 128 128
-2.45179 -2.26598 -0.747866 128 128 128
-1.80967 0.075081 -0.555595 128 128 128
-2.34446 -0.893362 -0.000377396 128 128 128
-1.61448 -0.241675 0.0166 128 128 128
-2.24284 -2.61123 -0.484456 128 128 128
-1.04298 1.2377 -1.17319 128 128 128
0.388236 4.00348 -1.35472 128 128 128
-0.315316 1.43149 -1.1779 128 128 128
0.0672436 1.01357 -1.63552 128 128 128
3.30517 4.00019 -1.00271 128 128 128
1.17339 3.95286 -0.211032 128 128 128
1.46806 4.13263 -0.411501 128 128 128
-0.475857 3.12597 -0.196046 128 128 128
0.289736 4.25358 -0.30317 128 128 128
1.63618 3.9768 0.0985244 128 128 128
-2.18879 -2.50107 -0.0452757 128 128 128
-2.48924 -2.21511 -0.461858 128 128 128
-2.18067 -2.46841 -0.513203 128 128 128
-2.13826 -2.53723 -0.797348 128 128 128
-0.220476 -1.47137 -0.795524 128 128 128
-0.190676 -1.40502 -0.832985 128 128 128
-1.67546 -2.75748 -1.20105 128 128 128
-1.60342 -3.13399 -0.00860731 128 128 128
0.094529 3.59378 0.0536209 128 128 128
0.227622 4.14076 -0.628438 128 128 128
2.27591 2.82478 -2.43731 128 128 128
0.348514 4.24421 -0.232729 128 128 128
0.123904 4.08485 0.144634 128 128 128
-0.296095 3.53575 -0.182641 128 128 128
0.322027 4.26013 -0.313392 128 128 128
0.297592 4.23898 0.0545707 128 128 128
0.857875 4.18381 -0.0138594 128 128 128
4.99093 3.09391 -1.39971 128 128 128
4.1569 4.81547 -1.15803 128 128 128
4.77915 5.17985 -0.526285 128 128 128
4.69008 5.26908 -0.574974 128 128 128
4.30453 4.96272 -1.80304 128 128 128
5.15195 5.56775 -1.27566 128 128 128
4.73791 5.22197 -0.556989 128 128 128
-2.94035 -1.69214 0.126445 128 128 128
-2.40143 -2.13187 -1.00244 128 128 128
-2.39172 -2.12128 -1.11377 128 128 128
-0.780526 0.431586 0.0548455 128 128 128
-2.41726 -2.20557 -0.756199 128 128 128
-2.84426 -1.91308 -0.141019 128 128 128
-1.90606 2.88304 -1.25727 128 128 128
-1.49678 -2.83061 -1.37266 128 128 128
-1.77763 -3.11139 -1.49464 128 128 128
-1.62761 -3.03017 -1.02937 128 128 128
-2.19955 -2.53813 -0.400946 128 128 128
-1.97791 -1.33956 0.0399212 128 128 128
-2.77596 -1.85719 -1.33976 128 128 128
-3.46457 -1.54164 -0.547493 128 128 128
-2.14675 2.11278 -0.848581 128 128 128
4.6837 5.4554 -1.95057 128 128 128
4.71673 5.43214 -1.79035 128 128 128
3.34782 3.8189 0.159821 128 128 128
4.04805 4.54815 -0.511855 128 128 128
4.60086 5.19056 -0.606846 128 128 128
4.84625 5.28921 -1.29528 128 128 128
4.16765 5.03736 -1.83735 128 128 128
4.4783 5.19218 -1.86452 128 128 128
4.54198 3.96078 -1.00933 128 128 128
4.82497 5.22856 -1.37238 128 128 128
4.89478 5.3276 -1.29811 128 128 128
4.1858 4.72047 -0.576676 128 128 128
4.23892 4.81003 -1.27904 128 128 128
4.67766 5.26701 -0.527886 128 128 128
4.26584 4.87931 -1.91791 128 128 128
0.799466 2.94252 -0.303146 128 128 128
-0.200839 0.82738 -1.59897 128 128 128
3.28682 4.02456 -0.991909 128 128 128
3.16151 3.72763 -1.10403 128 128 128
5.39015 5.67869 -0.965534 128 128 128
3.19327 3.66307 -0.926071 128 128 128
3.02411 3.52723 -0.63365 128 128 128
3.37703 3.84158 -2.43265 128 128 128
3.06308 3.5847 -0.640184 128 128 128
3.34233 3.85611 -1.00748 128 128 128
3.47787 3.83933 0.107846 128 128 128
3.31542 3.74131 -0.235643 128 128 128
5.15732 5.51899 -1.36082 128 128 128
4.67983 5.21877 -0.547796 128 128 128
4.88989 5.32399 -1.09709 128 128 128
4.66825 5.08045 -1.19618 128 128 128
4.72062 5.2249 -0.627955 128 128 128
4.22439 4.91744 -1.83932 128 128 128
4.43833 4.62074 -1.37339 128 128 128
4.90133 5.28276 -1.18355 128 128 128
4.6463 5.1014 -1.20037 128 128 128
3.32535 3.82206 -0.658181 128 128 128
3.34236 3.82253 -1.00296 128 128 128
5.60773 5.76129 -0.985154 128 128 128
3.02601 3.5938 -0.718959 128 128 128
4.61938 5.22238 0.055006 128 128 128
4.66843 5.22483 -0.371124 128 128 128
4.71779 5.20441 -0.512036 128 128 128
2.79652 3.16837 -1.46317 128 128 128
2.92493 3.55031 -0.733626 128 128 128
2.61598 2.36506 -0.162588 128 128 128
4.94515 5.32009 -1.01749 128 128 128
4.82559 5.15421 -1.39307 128 128 128
4.4488 5.42639 -0.133371 128 128 128
0.20022 4.10735 -0.394052 128 128 128
3.05637 3.54122 -1.40277 128 128 128
0.317947 4.25249 -0.226023 128 128 128
0.267744 4.16263 -0.535519 128 128 128
3.20075 3.65674 -1.10351 128 128 128
2.42047 1.79856 -2.33917 128 128 128
2.13481 2.19511 -2.32606 128 128 128
0.30066 4.14454 -0.516569 128 128 128
1.33718 3.99082 -0.285366 128 128 128
3.24726 3.75653 -1.02364 128 128 128
3.38456 3.83537 -0.630798 128 128 128
-0.120206 2.98262 -0.262503 128 128 128
0.413864 3.22616 -2.38887 128 128 128
0.484103 3.2213 -0.321503 128 128 128
0.480657 3.22273 -0.314762 128 128 128
2.12539 1.85313 0.669595 128 128 128
-0.709967 2.7989 0.080416 128 128 128
-2.00285 6.12929 -0.401779 128 128 128
0.0622164 1.01805 -1.62394 128 128 128
5.23628 5.8364 -1.1625 128 128 128
5.29653 5.61609 -0.712405 128 128 128
4.10224 4.89942 -1.25826 128 128 128
3.34201 3.87659 -0.631813 128 128 128
3.01196 3.62622 -0.804038 128 128 128
3.02907 3.60183 -0.718536 128 128 128
2.96468 3.49838 -0.96296 128 128 128
4.67961 5.2744 -0.669156 128 128 128
4.80385 5.39896 -1.11316 128 128 128
4.89741 5.1088 -1.37752 128 128 128
4.2972 4.7168 -0.518336 128 128 128
4.87293 5.29708 -1.18162 128 128 128
5.23483 5.58345 -0.71582 128 128 128
-3.7605 -3.91868 0.207696 128 128 128
-1.68351 -1.67757 0.0165599 128 128 128
-2.2119 2.78286 -2.35533 128 128 128
-3.44469 -1.4956 -2.14255 128 128 128
-1.2255 2.24894 0.302454 128 128 128
-1.99357 1.00159 0.215485 128 128 128
-0.345335 2.8214 -1.55596 128 128 128
3.06556 3.5587 -0.712703 128 128 128
1.36782 2.22983 0.110897 128 128 128
2.21561 3.06146 -2.15091 128 128 128
0.221949 3.66403 0.0141299 128 128 128
0.617237 3.77054 -2.34322 128 128 128
0.664841 1.36036 -0.185464 128 128 128
0.0578015 0.963184 -1.51033 128 128 128
2.1204 3.0729 -1.1411 128 128 128
1.58679 2.05625 -1.28015 128 128 128
3.35219 3.80074 -0.274999 128 128 128
-2.19962 0.910469 -1.31884 128 128 128
0.524453 3.18183 -2.45299 128 128 128
2.05284 2.34024 0.243489 128 128 128
4.70811 5.14124 -1.10756 128 128 128
4.5349 4.9881 -1.38837 128 128 128
4.44966 4.76895 -1.39741 128 128 128
4.75304 5.22009 -0.66204 128 128 128
4.37137 4.85105 -1.35767 128 128 128
4.69351 5.05586 -1.30338 128 128 128
4.27256 3.20306 -0.440648 128 128 128
4.28935 3.69199 -2.23786 128 128 128
-0.679095 2.84049 0.0395039 128 128 128
-0.758924 2.60197 0.0440933 128 128 128
-1.97374 2.6729 -1.02991 128 128 128
-0.872561 2.07749 0.233771 128 128 128
-2.11598 1.54204 -2.28887 128 128 128
0.341977 2.20756 -0.218354 128 128 128
-2.08596 1.53649 -0.506318 128 128 128
-2.03153 2.49726 0.0502922 128 128 128
-1.97241 2.51512 0.00231701 128 128 128
-1.38825 1.25806 0.49856 128 128 128
-2.16913 1.45263 -0.527271 128 128 128
1.80656 2.47575 -0.864149 128 128 128
1.72975 1.84793 -0.416163 128 128 128
3.04852 3.59151 -0.880477 128 128 128
2.02624 2.41226 -1.5608 128 128 128
1.87977 2.53592 0.121893 128 128 128
2.38688 1.43755 -2.52123 128 128 128
1.77436 2.48343 -1.26555 128 128 128
1.75981 2.75267 -1.24785 128 128 128
1.38311 2.28718 -1.3675 128 128 128
1.31593 2.26662 -1.4838 128 128 128
1.65823 2.57124 -1.17591 128 128 128
1.66454 2.63271 -1.0433 128 128 128
1.36908 2.24148 -0.487951 128 128 128
-0.691807 2.8314 0.0375457 128 128 128
1.37108 2.3049 -1.27556 128 128 128
1.66154 2.62955 -1.01415 128 128 128
1.63202 2.4737 -0.896911 128 128 128
1.64856 2.58224 -1.01092 128 128 128
1.35814 2.29527 -0.960046 128 128 128
0.360355 1.23658 -2.3517 128 128 128
-2.07951 1.83665 -0.420054 128 128 128
1.76848 2.56543 -1.26734 128 128 128
-2.11443 0.759386 0.0697973 128 128 128
-0.812893 0.485453 0.0766823 128 128 128
1.4852 2.52286 -1.27431 128 128 128
0.136144 2.38965 0.10034 128 128 128
0.500783 3.22981 -1.25927 128 128 128
0.38424 3.3298 -0.474393 128 128 128
1.52848 2.30964 -0.88993 128 128 128
1.30169 2.23981 -0.393467 128 128 128
0.74327 1.66567 -1.24221 128 128 128
0.291771 2.91297 -0.0743406 128 128 128
0.211337 4.35716 -0.937804 128 128 128
1.35482 0.42389 -0.092514 128 128 128
0.850079 2.77331 0.0492883 128 128 128
2.42475 1.40593 -0.688155 128 128 128
2.18922 2.10718 0.614126 128 128 128
-0.447175 3.43821 -0.362422 128 128 128
0.0313833 3.73207 -0.107808 128 128 128
0.191388 4.07803 -0.528957 128 128 128
1.90877 0.23932 -0.0150953 128 128 128
2.01573 2.49799 -1.58395 128 128 128
0.284379 3.27517 -0.345327 128 128 128
0.159234 4.35111 -0.78095 128 128 128
0.253578 3.26656 -0.29263 128 128 128
1.20192 3.6113 -2.24414 128 128 128
1.97442 2.42875 -1.64733 128 128 128
0.310448 3.09271 -0.273045 128 128 128
4.64686 5.11584 -0.644526 128 128 128
4.3732 4.843 -1.35639 128 128 128
4.51428 5.0643 -1.9819 128 128 128
4.43594 5.15927 -1.94096 128 128 128
4.61323 5.16846 -0.647363 128 128 128
0.544365 3.33802 -0.319635 128 128 128
1.32308 2.33738 -0.221365 128 128 128
0.94766 2.80956 -0.246202 128 128 128
-2.11829 1.51261 0.0600694 128 128 128
1.32706 2.35115 -0.234555 128 128 128
-2.1837 -0.22323 -0.455854 128 128 128
-2.11225 0.954205 -1.31572 128 128 128
-1.04371 -0.557583 -0.344948 128 128 128
1.16399 2.12084 -1.13619 128 128 128
0.556043 2.98978 -0.269691 128 128 128
-2.09296 1.52689 -2.24143 128 128 128
-0.533142 1.77329 0.0903982 128 128 128
0.4758 3.35407 -0.692763 128 128 128
0.00999504 3.78853 -0.270579 128 128 128
-0.0851069 3.61353 -1.33908 128 128 128
-0.0244941 3.73906 -0.156241 128 128 128
1.95158 2.30407 -0.732027 128 128 128
-1.61263 -3.00971 -1.01646 128 128 128
-1.55181 -2.86369 -0.908874 128 128 128
-1.65981 -3.21509 -1.38658 128 128 128
-2.01866 -2.51864 -0.0105713 128 128 128
-1.80193 -1.46632 -1.51817 128 128 128
-1.6102 -3.04391 -1.7466 128 128 128
-1.58146 -2.76881 -1.08261 128 128 128
-1.93133 0.911327 -1.70753 128 128 128
-1.85777 -3.6014 -1.39507 128 128 128
-2.01339 -2.73241 0.101884 128 128 128
-1.67092 -2.78439 -1.09088 128 128 128
-0.891109 0.628108 0.0853157 128 128 128
-2.51527 -0.555155 -0.339507 128 128 128
-1.92997 0.910359 -1.0863 128 128 128
-3.01128 -1.61071 0.0577564 128 128 128
-2.14069 2.32837 0.081069 128 128 128
-0.928181 -2.42699 0.413309 128 128 128
-1.72459 -1.74557 -1.59216 128 128 128
-2.20775 -2.23878 -1.7112 128 128 128
-2.04652 0.803685 -0.540279 128 128 128
-2.03809 -1.889 -1.26255 128 128 128
-1.84667 -1.88326 -1.48841 128 128 128
-0.430308 0.104532 0.000165851 128 128 128
-1.74808 -3.16985 -1.14193 128 128 128
-0.187969 0.846867 -1.56887 128 128 128
-0.187299 0.847441 -1.56939 128 128 128
-1.31065 -1.00098 0.216583 128 128 128
-1.39229 -1.49501 0.00152219 128 128 128
-1.64573 -1.93778 -1.26611 128 128 128
-1.68499 -2.8792 -1.49526 128 128 128
-1.94785 -1.97555 -0.157015 128 128 128
-1.63663 -3.05416 -0.949234 128 128 128
-2.14867 -2.08521 -1.27055 128 128 128
-0.236621 -1.44398 -0.814825 128 128 128
0.351664 -0.614455 0.116797 128 128 128
0.582627 0.230787 -1.53025 128 128 128
-1.15242 0.899519 0.0506456 128 128 128
-2.28543 -2.52544 -0.492698 128 128 128
-1.52854 1.31126 0.0496563 128 128 128
-1.17794 -0.611673 0.0111164 128 128 128
-2.10612 -2.45632 -0.32864 128 128 128
-2.01179 0.0640801 0.0177789 128 128 128
-2.093 -2.70682 0.0441134 128 128 128
-2.74364 -0.598251 -1.05805 128 128 128
-2.18089 1.57347 -0.496962 128 128 128
-2.14097 1.58193 -0.476148 128 128 128
-2.13365 0.808449 -0.885564 128 128 128
-3.3599 -1.56778 -0.353658 128 128 128
-2.72704 -1.80396 -1.5286 128 128 128
-1.95378 -1.30365 0.03198 128 128 128
-2.31855 -2.21342 -2.20804 128 128 128
-1.82572 -3.72708 -1.19612 128 128 128
-1.6248 -1.55212 -1.57778 128 128 128
-1.37824 1.27036 -0.125372 128 128 128
-1.14902 -1.16554 0.560946 128 128 128
-1.94275 0.108943 0.101626 128 128 128
-0.444564 0.0616245 0.0242863 128 128 128
-1.82726 2.34813 -0.030422 128 128 128
-2.08927 0.0492203 0.0561539 128 128 128
-2.07025 1.84284 -0.494417 128 128 128
-2.08302 2.28791 -2.31397 128 128 128
-2.07521 1.84977 -0.454214 128 128 128
-1.56469 -3.23142 -0.493194 128 128 128
-1.85578 1.61054 0.0191313 128 128 128
-1.66142 -2.71314 -1.27607 128 128 128
-1.7562 -1.79553 -1.58464 128 128 128
0.768244 2.41089 -0.432598 128 128 128
-0.577899 2.57198 0.0599591 128 128 128
-2.12313 4.77337 -0.612184 128 128 128
-1.90285 2.12255 -0.882665 128 128 128
-1.74871 -2.85409 -2.08704 128 128 128
-1.66014 -0.231399 -0.0664441 128 128 128
-1.63544 -2.51726 -2.19167 128 128 128
-1.95962 1.58782 -0.00889201 128 128 128
-0.743391 2.07314 0.0534698 128 128 128
0.911685 1.86963 -1.53532 128 128 128
-1.94562 2.21041 -0.975372 128 128 128
1.18457 2.12321 -1.151 128 128 128
-1.98888 3.05182 -1.55341 128 128 128
-1.90882 2.54204 0.0852415 128 128 128
-5.41384 -5.33389 0.30647 128 128 128
0.128329 0.881974 0.337022 128 128 128
-2.12927 -0.189197 -2.26917 128 128 128
-2.05071 0.933907 -1.3438 128 128 128
-1.43955 1.50722 0.196316 128 128 128
-1.77145 -0.597041 0.00859738 128 128 128
-2.84248 -1.03015 -0.0985898 128 128 128
-3.12408 -1.25521 -0.0228145 128 128 128
-2.67311 -2.15138 -0.43159 128 128 128
-0.195784 0.761551 -2.31796 128 128 128
0.872012 1.80188 -0.909574 128 128 128
0.649918 0.477719 0.084753 128 128 128
-2.0051 3.03165 -1.41706 128 128 128
-1.01621 -2.22489 -0.433946 128 128 128
-1.53382 -3.21877 -0.162861 128 128 128
-1.51723 -3.30061 -0.444535 128 128 128
-2.15662 -3.14897 -0.372823 128 128 128
-1.51232 -2.3128 -1.13436 128 128 128
-0.191478 -1.37569 -0.727668 128 128 128
-2.02556 -0.14422 -0.0316071 128 128 128
-0.202262 -1.38593 -1.11315 128 128 128
-2.0628 -0.169284 -0.0125966 128 128 128
-0.843214 -0.934638 -0.0235339 128 128 128
-0.362069 -1.54186 -0.722136 128 128 128
-1.78581 -1.6136 0.0387135 128 128 128
-1.43886 -2.18497 -0.160833 128 128 128
-2.05939 1.50706 0.029519 128 128 128
-2.62507 2.92795 -2.55335 128 128 128
-1.29714 -1.85065 -0.0238044 128 128 128
-2.48167 3.11376 -2.50386 128 128 128
-2.73541 -1.7071 -0.270162 128 128 128
-1.99696 -2.05115 -0.131171 128 128 128
-1.95843 2.99288 -1.21274 128 128 128
-2.44345 2.3428 0.219679 128 128 128
-1.52222 1.18726 0.0258591 128 128 128
-2.19662 1.31501 0.74562 128 128 128
-1.43356 2.77692 0.00678126 128 128 128
0.585742 -0.365122 -1.17109 128 128 128
-0.163532 -1.44029 -0.884186 128 128 128
0.510092 -0.283341 0.206691 128 128 128
0.460959 -0.322291 0.170644 128 128 128
-0.193967 -1.4147 -1.14316 128 128 128
-0.799381 2.33296 0.0631064 128 128 128
0.911931 1.83303 -0.775799 128 128 128
-0.701981 1.9914 0.0127028 128 128 128
0.0340863 1.28985 -0.0375228 128 128 128
-0.138164 0.388711 0.411364 128 128 128
0.909422 1.8828 -1.21478 128 128 128
-1.42793 2.38417 0.198912 128 128 128
-1.88813 1.67446 0.0390635 128 128 128
1.27385 2.1989 -1.38098 128 128 128
0.416536 1.28375 0.0985708 128 128 128
0.932455 1.86111 -0.373865 128 128 128
1.16585 2.07705 -1.11824 128 128 128
-1.00466 2.55012 0.054474 128 128 128
-2.85477 -2.03656 -2.18446 128 128 128
-0.722501 -1.87814 -1.05094 128 128 128
0.0852842 -1.13534 0.222386 128 128 128
-0.316212 -1.49134 -0.805284 128 128 128
-3.78593 -0.900492 0.132877 128 128 128
-0.59295 -1.19038 -0.026844 128 128 128
0.140403 -1.05763 -0.344638 128 128 128
-0.187792 -1.37235 -0.923131 128 128 128
-0.877409 -0.794087 -0.00677536 128 128 128
-0.709738 -1.78706 -1.07424 128 128 128
-0.841386 -1.97637 -0.55988 128 128 128
-2.79784 -1.96548 -0.479965 128 128 128
-0.575132 -1.71693 -0.89565 128 128 128
-4.07813 -0.927695 -0.337248 128 128 128
-0.7567 -0.959421 0.0273889 128 128 128
-0.400533 0.205419 -0.0617167 128 128 128
-2.03208 3.16979 0.0755177 128 128 128
-0.377297 0.268365 -0.0982827 128 128 128
-0.336545 0.124851 -0.00839594 128 128 128
-0.201566 0.55256 -0.257516 128 128 128
-1.98226 3.0136 -1.27933 128 128 128
-1.97713 3.01666 -1.15478 128 128 128
0.420369 1.32989 -0.379318 128 128 128
0.910604 1.85113 -1.41256 128 128 128
-2.34833 3.00963 0.449223 128 128 128
-2.01629 2.91024 -1.25808 128 128 128
1.05066 1.94304 -1.2102 128 128 128
1.06647 1.97264 -1.10007 128 128 128
-2.1064 1.59052 -0.54442 128 128 128
0.949151 1.84712 -1.51472 128 128 128
1.1792 2.10574 -1.14583 128 128 128
1.39207 2.29106 -1.31102 128 128 128
-1.7219 3.14026 -0.0315202 128 128 128
-2.10718 2.84179 0.289463 128 128 128
0.983252 1.8293 -1.63627 128 128 128
-1.89124 2.97356 -1.16476 128 128 128
1.09762 2.01521 -1.13571 128 128 128
0.908478 1.87786 -1.44884 128 128 128
0.147432 0.951155 -2.27068 128 128 128
0.937126 1.92818 -1.44144 128 128 128
-1.53388 1.2255 0.0324475 128 128 128
-2.10347 1.84313 -2.29115 128 128 128
0.999605 2.03989 -1.19481 128 128 128
1.2681 2.18902 -1.35379 128 128 128
1.27602 2.21047 -1.37868 128 128 128
1.31341 2.23968 -1.20963 128 128 128
-3.18983 2.97468 -1.17318 128 128 128
0.163597 0.973245 0.250325 128 128 128
0.761754 1.59159 -0.856623 128 128 128
0.760391 1.57405 -1.22408 128 128 128
1.22161 2.0992 -0.307961 128 128 128
0.438917 0.907721 -1.6775 128 128 128
0.917519 0.800255 -1.08466 128 128 128
0.484672 0.524243 -1.18726 128 128 128
0.647863 0.380294 -1.20196 128 128 128
0.532765 0.422896 -1.0969 128 128 128
0.371486 -0.255291 -1.15227 128 128 128
0.38224 -0.664881 -0.830369 128 128 128
0.91194 -0.258433 -0.270189 128 128 128
-0.373943 -1.52128 -0.88888 128 128 128
0.262039 1.09133 -1.50552 128 128 128
0.769953 1.60746 -0.861905 128 128 128
-1.14439 2.70072 -0.174691 128 128 128
-2.0138 2.88572 -1.56162 128 128 128
-1.90941 2.98579 -1.25809 128 128 128
-0.282345 0.715428 -2.32579 128 128 128
-2.00369 1.76063 0.102709 128 128 128
-2.14012 -0.243202 0.047762 128 128 128
-1.16559 0.909277 0.063423 128 128 128
-0.369671 1.64058 0.0378899 128 128 128
0.430605 1.33932 -0.387616 128 128 128
-0.377508 1.63283 0.0449511 128 128 128
0.723633 1.60783 -1.24211 128 128 128
-2.26973 2.51812 0.227236 128 128 128
-1.84757 2.46496 0.0228157 128 128 128
-1.77439 -1.59487 0.0423543 128 128 128
-0.28712 2.5148 0.107134 128 128 128
0.889502 1.84614 -1.49197 128 128 128
0.507489 1.39641 -0.395061 128 128 128
1.01439 1.89284 -1.04687 128 128 128
0.917362 1.88096 -1.53798 128 128 128
0.583261 1.451 -1.26533 128 128 128
-1.72105 2.69264 0.0672201 128 128 128
0.947025 1.94196 -1.39534 128 128 128
0.823997 1.72659 -1.21514 128 128 128
1.01297 1.91313 -0.894257 128 128 128
0.430837 1.3424 -0.22334 128 128 128
1.00758 1.94951 -1.3357 128 128 128
1.03979 1.91878 -0.886196 128 128 128
0.982191 1.82365 -1.54595 128 128 128
0.304115 1.15472 -2.07428 128 128 128
1.04588 1.93831 -1.21322 128 128 128
-1.51107 -2.25371 -1.58537 128 128 128
-2.09664 -0.167794 -1.4202 128 128 128
-2.08521 -0.107983 -1.33968 128 128 128
-3.12719 -1.59568 0.0886135 128 128 128
-1.95924 2.26804 -0.878249 128 128 128
-1.97028 0.176825 0.091667 128 128 128
0.396673 1.31153 -1.40739 128 128 128
-2.115 2.92767 -1.26602 128 128 128
-1.43911 2.76706 -0.0227177 128 128 128
-2.04731 7.06284 -0.091088 128 128 128
-1.53587 -2.54231 -2.16027 128 128 128
-0.83968 -1.93233 -1.13704 128 128 128
-3.02739 -2.40105 -0.34425 128 128 128
-2.24731 3.06561 -1.15214 128 128 128
-1.51227 2.88018 -2.12277 128 128 128
-1.66776 -1.71093 0.0183219 128 128 128
-2.02871 2.90798 -1.16382 128 128 128
-2.28932 0.79261 0.181947 128 128 128
-2.78589 -1.94698 -2.17115 128 128 128
-2.14897 -0.705927 0.00683813 128 128 128
-2.06382 3.04015 -1.15152 128 128 128
-1.97089 2.49835 -2.32321 128 128 128
-1.93611 2.8767 -1.44967 128 128 128
-1.95594 -0.428749 0.0194389 128 128 128
-2.26087 -2.49249 -0.0345018 128 128 128
-1.72466 2.61576 0.0319882 128 128 128
-2.02616 2.87192 -2.35029 128 128 128
-1.20498 2.39479 0.0971871 128 128 128
-2.07071 2.52726 -2.02338 128 128 128
-1.9543 2.28091 -0.00438719 128 128 128
-1.49769 1.25415 0.0251229 128 128 128
-2.13478 2.89235 -1.51015 128 128 128
-2.26093 1.81561 -0.414816 128 128 128
-2.48119 -2.20939 -0.801371 128 128 128
-2.15068 1.60235 -2.29413 128 128 128
-2.06164 1.84646 -0.00243686 128 128 128
-2.92296 -1.53667 0.0397516 128 128 128
-2.13955 1.55565 -1.44876 128 128 128
-1.1973 0.796057 0.0432304 128 128 128
-2.09103 1.98109 -2.2814 128 128 128
-1.86171 -1.88977 -1.49964 128 128 128
-1.19339 0.868646 0.0828148 128 128 128
-0.919204 -2.06682 -0.984745 128 128 128
-1.55497 -3.35141 -0.408723 128 128 128
-0.357554 -0.6186 -0.217482 128 128 128
-0.1991 -1.36262 -0.735087 128 128 128
-0.556983 -1.16546 -0.0425723 128 128 128
-1.05069 -2.07475 -0.0568976 128 128 128
-1.20167 -0.571629 -0.0121704 128 128 128
-0.209438 -1.3878 -1.12923 128 128 128
-2.02122 -1.27593 0.00175833 128 128 128
-0.203425 -1.22582 0.14774 128 128 128
-8.71156 -3.82026 1.98527 128 128 128
-0.343406 -1.54634 -0.723286 128 128 128
-2.79626 -1.9114 -0.74379 128 128 128
-7.85545 -26.8657 -2.72498 128 128 128
-1.65873 -1.72446 0.0177158 128 128 128
-0.948522 -2.08723 -1.29238 128 128 128
-2.09111 0.79309 0.0541663 128 128 128
-1.61768 3.08103 -0.0984294 128 128 128
-2.15045 1.86461 -1.02533 128 128 128
-2.2492 -2.42855 -0.527449 128 128 128
-2.24697 -2.459 -0.0482701 128 128 128
-2.0272 2.86679 -2.31934 128 128 128
-1.54664 1.3174 0.0645753 128 128 128
-0.723736 -1.90168 -0.948877 128 128 128
0.784945 1.43779 -0.31745 128 128 128
0.0728507 1.13225 -1.44557 128 128 128
0.502669 0.855871 -1.57437 128 128 128
-0.866339 4.26484 0.0769004 128 128 128
0.511908 3.74868 -1.41356 128 128 128
-4.03824 -1.42384 -0.686008 128 128 128
-0.57809 -1.70949 -0.896735 128 128 128
-0.238452 -0.39847 -1.55122 128 128 128
-4.28546 -0.293499 0.150446 128 128 128
-0.248104 -0.577881 -1.918 128 128 128
-0.618668 -1.7514 -2.2048 128 128 128
-1.84109 -1.9996 -1.63502 128 128 128
-1.99788 -1.91288 -1.49584 128 128 128
-2.15646 0.73601 0.0330201 128 128 128
0.00550684 1.19208 0.0172672 128 128 128
-2.05318 2.47533 -2.34528 128 128 128
-1.97535 3.05775 -1.55683 128 128 128
-1.98302 2.98122 -1.76556 128 128 128
-0.190677 -1.37909 -0.727285 128 128 128
-0.251018 -0.476396 -1.88786 128 128 128
-0.786231 -2.15745 -0.254122 128 128 128
-0.994962 -2.22931 -2.2387 128 128 128
-0.207512 -1.41451 -0.943162 128 128 128
-4.05082 -0.193637 0.0753156 128 128 128
-0.342074 -1.50579 -1.12899 128 128 128
-0.568564 -2.19039 -2.38492 128 128 128
-1.54408 2.8978 0.0545246 128 128 128
-2.29282 2.30576 -0.80991 128 128 128
-2.01934 2.50646 0.0190519 128 128 128
-1.42254 2.68717 -0.0573042 128 128 128
0.181419 0.856044 -1.13716 128 128 128
-2.06551 2.96828 -1.56951 128 128 128
-1.06711 0.881951 -0.0337311 128 128 128
-2.07157 -2.06559 -1.02313 128 128 128
-2.07708 -2.64832 -1.25834 128 128 128
-2.33123 -2.21919 -2.11441 128 128 128
-2.32353 -2.53106 -2.16268 128 128 128
-2.10952 0.831518 -0.445863 128 128 128
-0.385827 0.0550645 0.0267355 128 128 128
-1.62315 2.25393 -1.03347 128 128 128
-1.63328 -3.37106 -1.12044 128 128 128
-0.879992 -0.773229 -0.0149638 128 128 128
-2.19769 0.696626 -0.52692 128 128 128
-1.90059 -2.11419 -0.873587 128 128 128
-2.01911 -2.34092 -1.05349 128 128 128
-2.19717 -2.33465 -0.996754 128 128 128
-1.77518 -0.612443 0.0122895 128 128 128
-3.42965 -1.62638 -0.338848 128 128 128
-1.09089 0.871707 0.0615201 128 128 128
-2.1104 0.784061 0.0113124 128 128 128
-2.06723 3.27275 0.13223 128 128 128
-1.24116 2.70466 -0.135016 128 128 128
-1.89189 1.88729 -0.0665127 128 128 128
-0.941298 0.389247 0.0645049 128 128 128
-1.68376 2.77595 0.0820909 128 128 128
-2.18025 1.54518 -1.62135 128 128 128
-0.436188 0.113748 -0.00785055 128 128 128
-2.21451 2.53416 0.105022 128 128 128
-1.46902 1.36142 0.0269576 128 128 128
-2.39331 2.30659 -0.794398 128 128 128
-1.91556 -2.51508 -0.0116511 128 128 128
-2.21178 -2.3396 -0.565932 128 128 128
-0.835412 -0.76587 0.00469894 128 128 128
-1.99035 2.29613 -0.850917 128 128 128
-3.44901 2.7776 0.810535 128 128 128
-2.16561 2.52891 -1.96358 128 128 128
-2.14645 0.276932 0.0661526 128 128 128
-1.8897 2.48946 -2.24878 128 128 128
