ply
format ascii 1.0
element vertex 1231
property float x
property float y
property float z
property uchar red
property uchar green
property uchar blue
end_header
12.4927 -2.95167 -1.24045 128 128 128
12.3967 -2.91921 -1.29007 128 128 128
12.3273 -4.49622 -1.1403 128 128 128
12.1397 -4.53404 0.062119 128 128 128
12.426 -2.93635 -1.26961 128 128 128
12.4877 -2.95528 -1.241 128 128 128
12.0864 -4.50435 -0.00775062 128 128 128
12.0903 -4.4938 -0.0249625 128 128 128
11.528 -4.38483 -0.0577044 128 128 128
11.2304 -4.14515 -0.0230233 128 128 128
11.1707 -4.19467 -1.33078 128 128 128
10.9061 -3.87366 -1.579 128 128 128
11.0481 -1.5647 -0.103791 128 128 128
10.81 -1.57349 -0.182461 128 128 128
10.3987 -1.92484 -0.236565 128 128 128
10.3467 -3.29742 -0.23809 128 128 128
10.3544 -2.62861 1.26725 128 128 128
10.1289 -2.54097 1.33844 128 128 128
10.0825 -3.24398 1.29081 128 128 128
10.2014 -2.41224 1.3149 128 128 128
9.97528 -3.22726 1.29908 128 128 128
9.97056 -3.22868 1.29195 128 128 128
9.96002 -3.21346 1.31025 128 128 128
9.94214 -3.43441 1.27371 128 128 128
9.92447 -3.43919 1.21295 128 128 128
9.98695 -3.43759 1.19216 128 128 128
9.84836 -3.79828 1.21779 128 128 128
14.0558 -3.38637 0.524582 128 128 128
14.0616 -3.38834 0.519198 128 128 128
14.2796 -3.98037 -0.903179 128 128 128
14.2649 -3.98575 -0.911698 128 128 128
14.0862 -4.9972 -0.857153 128 128 128
13.5845 -4.34634 0.394527 128 128 128
13.2314 -4.85892 0.295235 128 128 128
13.4301 -4.81487 -0.934678 128 128 128
13.1638 -4.8265 0.211773 128 128 128
12.9145 -4.67732 -1.1519 128 128 128
12.646 -3.105 0.407706 128 128 128
13.0728 -2.32516 0.222339 128 128 128
12.6181 -3.27079 0.193783 128 128 128
12.8298 -4.65996 -1.05705 128 128 128
12.6824 -3.29952 0.170757 128 128 128
12.7202 -3.23238 0.271843 128 128 128
12.5647 -3.0929 0.41723 128 128 128
12.5551 -4.66718 0.100273 128 128 128
12.2472 -4.29199 0.189022 128 128 128
12.3221 -4.45771 0.150676 128 128 128
12.4546 -4.09036 0.211036 128 128 128
12.479 -4.10264 0.211575 128 128 128
12.2779 -4.56664 0.168458 128 128 128
12.3368 -4.50634 -1.1528 128 128 128
12.1236 -4.53822 0.0565827 128 128 128
11.9123 -1.79755 0.0407333 128 128 128
11.6098 -4.2142 -1.44436 128 128 128
11.5082 -2.67665 -0.0493836 128 128 128
11.5386 -2.68538 -0.0472204 128 128 128
11.1234 -3.60358 -0.0684895 128 128 128
10.9001 -3.56181 -0.0741776 128 128 128
10.9349 -4.20263 -0.297721 128 128 128
10.5092 -3.32336 -0.229422 128 128 128
10.5026 -1.9314 -0.225661 128 128 128
9.83591 -3.77178 1.00696 128 128 128
9.43765 -3.73242 -1.66073 128 128 128
9.68593 -3.75782 -1.56659 128 128 128
12.87 -4.65263 -1.02678 128 128 128
12.634 -4.66025 0.0954225 128 128 128
14.3287 -5.15273 0.392912 128 128 128
14.3857 -4.23101 0.592963 128 128 128
14.4866 -5.073 -0.680893 128 128 128
-3.49667 -0.213618 3.28182 128 128 128
-7.21192 2.14589 4.66873 128 128 128
-4.07188 1.54198 6.94706 128 128 128
-0.552328 -1.29306 -2.69967 128 128 128
-0.592087 -0.492261 -2.80666 128 128 128
-0.414254 -0.260249 -2.95308 128 128 128
-0.528656 -0.340976 -2.89849 128 128 128
-0.556379 -0.436021 -2.41025 128 128 128
-0.597676 -0.668796 -2.48752 128 128 128
-0.640287 -0.356665 -2.48079 128 128 128
-0.606703 -0.467609 -2.46215 128 128 128
-0.979906 -0.591917 -2.81237 128 128 128
-0.755931 -0.54256 -2.57071 128 128 128
-0.563349 -0.438843 -2.72911 128 128 128
-0.426799 0.00588665 -3.27386 128 128 128
-0.89749 -0.615178 -2.6505 128 128 128
-0.584326 -0.404001 -2.77687 128 128 128
-0.548137 -0.441398 -2.75253 128 128 128
-0.378893 -0.222225 -2.9579 128 128 128
-0.622526 -0.49182 -2.58579 128 128 128
-0.81442 -1.08233 -2.50448 128 128 128
-0.458163 -0.294304 -2.87373 128 128 128
-0.566393 -0.372563 -2.75303 128 128 128
-0.699478 -0.502903 -2.45158 128 128 128
-0.554839 -0.372891 -2.73536 128 128 128
-0.548206 -0.328927 -2.97149 128 128 128
-0.549274 -0.366324 -2.72919 128 128 128
-0.574544 -0.488675 -2.76283 128 128 128
-0.625991 -0.497666 -2.81591 128 128 128
-0.643114 -0.446283 -2.91135 128 128 128
-0.511319 -0.452543 -2.92983 128 128 128
-0.584033 -0.318652 -2.79301 128 128 128
-0.519519 -0.456867 -2.93825 128 128 128
-0.54062 -0.448299 -2.96287 128 128 128
-0.627621 -0.506839 -2.80526 128 128 128
-0.567956 -0.435254 -2.92587 128 128 128
-0.714207 -0.463352 -3.13498 128 128 128
-0.722867 -0.465649 -3.27775 128 128 128
-0.4552 -0.228111 -3.07396 128 128 128
-0.10312 0.390196 -3.60985 128 128 128
-0.614059 -0.447877 -3.04155 128 128 128
-0.140503 0.424907 -3.75313 128 128 128
-0.622383 -0.543972 -3.00767 128 128 128
-0.574648 -0.555913 -2.98631 128 128 128
-0.82124 -0.611841 -3.36846 128 128 128
-0.583365 -0.583964 -3.04208 128 128 128
-0.44644 -0.267322 -3.27304 128 128 128
-2.30261 -0.0824172 -0.662833 128 128 128
-0.536096 -0.529299 -2.9074 128 128 128
-0.699553 -1.05189 -3.02063 128 128 128
-0.654212 -1.02935 -2.93827 128 128 128
-0.677489 -1.03353 -3.03235 128 128 128
-0.799476 -1.09936 -3.19304 128 128 128
-0.281789 -0.654453 -3.73705 128 128 128
-0.430478 -0.131027 -3.32123 128 128 128
-0.421692 -0.205221 -3.21931 128 128 128
-0.411286 -1.05951 -3.6122 128 128 128
-3.68926 -0.325706 -2.05738 128 128 128
-3.62537 -0.304898 -1.88422 128 128 128
-4.36409 -0.110779 -2.21886 128 128 128
-0.432154 -0.206226 -3.22897 128 128 128
-0.399413 -0.194724 -3.25118 128 128 128
-0.295932 -0.676633 -3.78061 128 128 128
-0.560584 -0.349332 -2.36249 128 128 128
-0.599696 -0.421575 -2.46878 128 128 128
-0.570876 -0.460271 -2.48695 128 128 128
-0.521879 -0.403877 -2.74533 128 128 128
-0.601896 -0.394861 -2.60817 128 128 128
-0.52942 -0.325624 -2.69375 128 128 128
0.985857 -0.317051 -3.19555 128 128 128
-4.00768 1.19251 2.4938 128 128 128
-16.6638 0.844103 7.67322 128 128 128
-0.416323 0.541514 0.779728 128 128 128
-0.437894 0.570588 0.838609 128 128 128
-0.44324 0.573363 0.847927 128 128 128
-0.173611 0.443858 1.35046 128 128 128
-0.947069 -0.729755 1.56313 128 128 128
-3.10383 -0.61139 -0.338643 128 128 128
-2.22067 -0.932071 1.27666 128 128 128
-3.70352 -0.380053 0.22782 128 128 128
-2.09829 -0.494405 2.67252 128 128 128
-1.98913 1.76075 2.95557 128 128 128
-2.79301 -0.737002 2.88559 128 128 128
-2.7332 1.66951 2.87171 128 128 128
-2.2809 1.59011 3.36311 128 128 128
-3.32243 -0.52192 2.24529 128 128 128
-2.5607 0.761182 2.95164 128 128 128
-2.30239 0.886411 2.70247 128 128 128
-2.77969 0.362901 2.50469 128 128 128
-3.05475 0.346423 2.851 128 128 128
-3.11688 0.351463 2.93782 128 128 128
-2.26607 1.55472 3.35291 128 128 128
-2.51927 0.988069 3.12489 128 128 128
0.0475916 0.296387 0.965859 128 128 128
5.09082 -0.544584 -1.27434 128 128 128
5.10944 -0.550635 -1.27661 128 128 128
4.76895 -1.8909 -1.34198 128 128 128
4.59679 -1.46965 -1.28608 128 128 128
4.72924 -1.77821 -1.32555 128 128 128
4.27749 -1.26349 -1.24426 128 128 128
4.35122 -1.27347 -1.25058 128 128 128
4.28781 -1.25957 -1.25358 128 128 128
4.28355 -1.24931 -1.24782 128 128 128
4.36138 0.19321 -1.45819 128 128 128
3.99183 -1.90111 -1.3817 128 128 128
4.4332 0.143356 -1.46466 128 128 128
4.17259 -2.32563 -2.69823 128 128 128
4.23701 -2.32536 -2.67859 128 128 128
4.20945 -2.31981 -2.69569 128 128 128
3.8155 -2.20749 -1.29865 128 128 128
4.18907 0.358452 -1.27811 128 128 128
4.33376 -2.15539 -1.3233 128 128 128
3.89767 -2.28561 -1.31968 128 128 128
3.98646 -2.32721 -1.64444 128 128 128
3.84532 -2.34072 -1.64379 128 128 128
3.95108 -2.29505 -1.32432 128 128 128
3.63048 -1.45591 -1.50923 128 128 128
4.05195 -2.3317 -1.65831 128 128 128
3.80416 -1.48063 -1.5203 128 128 128
3.99125 -1.69418 -1.44997 128 128 128
3.72609 -1.46697 -1.52224 128 128 128
3.72454 -0.476261 -1.52724 128 128 128
3.6432 0.428323 -1.55695 128 128 128
3.76609 -0.860229 -1.66735 128 128 128
3.7177 -0.890972 -1.66346 128 128 128
3.7219 -0.865726 -1.56027 128 128 128
3.65732 -0.867603 -1.65802 128 128 128
3.41306 -0.809147 -1.6357 128 128 128
3.54944 -1.12029 -1.67909 128 128 128
3.2966 -0.73641 -1.65944 128 128 128
3.40263 -2.06152 -1.54712 128 128 128
3.52942 -1.11149 -1.67885 128 128 128
3.48021 -1.10847 -1.68126 128 128 128
3.50678 -1.27118 -1.63693 128 128 128
3.35938 -1.25323 -1.61976 128 128 128
3.402 -1.25513 -1.63019 128 128 128
2.17453 -1.85331 -3.33796 128 128 128
3.59221 -0.512808 -1.67537 128 128 128
2.48103 -1.86793 -2.19394 128 128 128
2.45698 -1.855 -3.27966 128 128 128
2.7265 -1.87599 -2.16234 128 128 128
2.55043 -0.146196 -1.70093 128 128 128
2.35607 -1.84684 -3.10313 128 128 128
2.58993 -0.165728 -1.70228 128 128 128
2.29629 -1.45645 -1.71949 128 128 128
1.98947 -1.40317 -1.68558 128 128 128
2.1052 -1.44219 -1.72412 128 128 128
1.94986 -1.52183 -1.92215 128 128 128
1.4526 -1.48107 -1.90941 128 128 128
1.36685 -1.4847 -1.91569 128 128 128
1.36828 -1.47049 -3.53083 128 128 128
1.88605 -1.5294 -3.08236 128 128 128
0.791391 -1.43628 -3.35049 128 128 128
-0.353198 -0.441801 -3.65475 128 128 128
3.75555 -0.857283 -1.67364 128 128 128
3.62571 0.437997 -1.55698 128 128 128
3.827 -2.28692 -1.31049 128 128 128
3.58979 -1.03646 -1.59925 128 128 128
3.7627 -1.12531 -1.6673 128 128 128
3.75874 -1.11426 -1.66688 128 128 128
3.70526 -0.886495 -1.64783 128 128 128
3.78431 -1.68018 -1.46969 128 128 128
3.59458 -1.75891 -1.55443 128 128 128
3.39982 -2.20796 -1.61785 128 128 128
2.56476 -1.83766 -3.28797 128 128 128
2.48748 -1.28162 -1.77239 128 128 128
2.38375 -0.589307 -1.9058 128 128 128
2.55236 -1.29363 -1.77383 128 128 128
2.06457 -1.53281 -3.31744 128 128 128
2.20507 -0.747918 -1.87163 128 128 128
1.76759 -1.50646 -2.33599 128 128 128
0.758416 1.26658 -3.53526 128 128 128
0.5042 1.13425 -3.43061 128 128 128
0.403282 -1.416 -2.40682 128 128 128
-0.474531 -0.343512 -2.45202 128 128 128
-0.8012 -0.640793 -2.46878 128 128 128
-0.634605 0.127656 -2.9731 128 128 128
-0.585917 -0.430205 -2.87575 128 128 128
-0.446194 0.108391 -3.21603 128 128 128
-0.385592 -1.14564 -1.76243 128 128 128
-0.576568 -0.361755 -2.69305 128 128 128
-0.498226 -0.0662011 -3.22726 128 128 128
-0.594736 -0.418147 -2.48151 128 128 128
-0.660427 -0.577669 -2.45822 128 128 128
-0.573513 -0.309729 -2.68115 128 128 128
-0.755934 -0.994054 -2.90207 128 128 128
-0.598218 -0.419877 -2.48269 128 128 128
-0.511265 -1.11892 -2.47882 128 128 128
-0.620165 -0.328063 -2.40902 128 128 128
-0.824439 -1.01984 -2.50461 128 128 128
-0.336281 1.48558 -1.70031 128 128 128
-0.317436 1.46306 -1.71079 128 128 128
-0.750738 0.331473 -1.6388 128 128 128
-0.675033 0.294253 -1.66914 128 128 128
-0.608752 0.284963 -1.69506 128 128 128
-0.844203 -0.484202 -1.77309 128 128 128
-0.800627 -0.505919 -1.80299 128 128 128
-0.916702 -0.993103 -1.78257 128 128 128
-0.962556 -0.993263 -1.76245 128 128 128
-0.880401 -0.347618 -1.66797 128 128 128
-1.67451 0.694727 -0.973983 128 128 128
-1.43052 1.80372 -0.929329 128 128 128
-1.67596 0.706293 -0.966859 128 128 128
-1.92277 -0.87175 0.939905 128 128 128
-1.75843 -0.21964 -1.12869 128 128 128
-1.84037 -0.856993 0.848609 128 128 128
-2.07748 0.676486 -0.737752 128 128 128
-1.81426 -0.839147 0.802159 128 128 128
-2.74918 -0.108395 -0.509736 128 128 128
-2.46933 1.96097 -0.242825 128 128 128
-2.30392 1.88501 -0.332113 128 128 128
-2.46818 1.95174 -0.266314 128 128 128
-2.61411 2.01448 -0.170817 128 128 128
-0.516266 -0.3117 -2.54931 128 128 128
-0.458884 0.57693 0.872545 128 128 128
2.32193 -0.523268 -1.79259 128 128 128
2.26603 -0.516695 -1.77998 128 128 128
2.28924 -1.26394 -1.76384 128 128 128
2.38562 -0.536404 -1.78793 128 128 128
2.20911 -1.26041 -1.76418 128 128 128
2.20052 -1.26283 -1.76812 128 128 128
1.56618 -1.57468 -3.43149 128 128 128
1.63792 -1.58554 -3.41968 128 128 128
1.14798 -1.25217 -1.96718 128 128 128
0.857837 -0.517331 -1.73106 128 128 128
1.33885 -1.46688 -1.90749 128 128 128
0.769006 -1.41963 -3.59563 128 128 128
0.626728 -1.44264 -3.4031 128 128 128
0.856204 -1.44614 -3.32897 128 128 128
0.712 -1.42655 -3.37457 128 128 128
0.374602 -1.27154 -3.60425 128 128 128
0.735744 1.27991 -3.54861 128 128 128
0.63948 -1.42158 -2.34447 128 128 128
0.65937 -1.42994 -2.32221 128 128 128
-0.00421946 1.47153 -3.6131 128 128 128
-0.729378 -0.373353 -2.484 128 128 128
-0.307159 -0.543008 -3.73274 128 128 128
-0.255463 -0.516266 -3.70923 128 128 128
-0.390479 0.542374 -2.97872 128 128 128
-0.585809 -0.435098 -2.87633 128 128 128
-0.47438 -0.49863 -2.90379 128 128 128
-0.454959 0.0988407 -3.21291 128 128 128
-0.587298 0.123499 -3.22605 128 128 128
-0.406228 -0.0796503 -3.19329 128 128 128
-0.464046 -0.069391 -3.21769 128 128 128
-1.45329 -0.245968 -2.50348 128 128 128
-0.858037 -1.0278 -2.51727 128 128 128
4.22525 -1.80452 -1.41228 128 128 128
3.48821 -1.09011 -1.65366 128 128 128
3.58026 -1.42544 -3.00068 128 128 128
3.60148 0.456218 -1.56037 128 128 128
3.53855 0.29131 -1.61061 128 128 128
3.05297 -1.45228 -1.66036 128 128 128
3.08071 -1.43773 -1.67878 128 128 128
3.06367 -1.44465 -1.67287 128 128 128
3.04655 -1.45231 -1.65734 128 128 128
2.87537 -2.05112 -1.72278 128 128 128
2.90007 -1.79975 -2.15036 128 128 128
2.9011 -1.79352 -2.15605 128 128 128
2.81867 -1.73753 -2.13522 128 128 128
2.81594 -1.73863 -2.13655 128 128 128
2.77951 -1.75079 -2.14552 128 128 128
2.8144 -1.74549 -2.14112 128 128 128
2.68637 -2.01161 -1.75334 128 128 128
2.69227 -0.9909 -1.57926 128 128 128
2.59129 -1.9004 -3.14163 128 128 128
2.68877 -0.985899 -1.5797 128 128 128
2.57478 -1.88784 -3.13217 128 128 128
2.60467 -1.85374 -3.15765 128 128 128
2.4311 -1.91218 -3.14688 128 128 128
2.51665 -1.85018 -3.1449 128 128 128
2.40625 -1.6261 -2.22673 128 128 128
2.6422 -0.372751 -1.63009 128 128 128
2.50501 -1.60378 -2.19126 128 128 128
2.45261 -1.71415 -2.27143 128 128 128
2.51514 -1.60431 -2.19944 128 128 128
2.39813 -1.58126 -1.78865 128 128 128
2.62791 -0.364682 -1.62714 128 128 128
5.11242 -0.565669 -1.28073 128 128 128
4.30573 -1.90891 -1.41129 128 128 128
4.29247 -2.35715 -2.78376 128 128 128
4.32588 -1.35627 -1.23638 128 128 128
4.2605 -1.30229 -1.24972 128 128 128
4.28716 -1.26708 -1.25054 128 128 128
4.21219 -1.84386 -1.39153 128 128 128
4.15801 -1.4023 -1.22948 128 128 128
4.14838 -2.25648 -2.69902 128 128 128
4.20567 -0.200595 -1.29285 128 128 128
3.85532 -2.28045 -1.69715 128 128 128
3.64627 -2.22476 -2.94175 128 128 128
3.69284 -2.19973 -2.91577 128 128 128
3.75931 -1.46946 -1.51586 128 128 128
3.71415 -1.67785 -1.46026 128 128 128
3.78091 -1.68541 -1.47018 128 128 128
3.74125 -1.46872 -1.51497 128 128 128
3.69547 -0.445443 -1.5091 128 128 128
3.58436 -0.802218 -1.65387 128 128 128
3.60722 -0.973542 -1.66745 128 128 128
3.60882 -0.974405 -1.66821 128 128 128
3.58989 -0.855227 -1.65418 128 128 128
3.58746 -1.82733 -1.52851 128 128 128
3.58254 -1.09305 -1.67607 128 128 128
3.58746 -0.856085 -1.65448 128 128 128
3.59258 -0.89322 -1.58321 128 128 128
3.70553 -1.18186 -1.60672 128 128 128
3.48693 -1.07839 -1.66641 128 128 128
3.56158 -1.03221 -1.57278 128 128 128
3.50925 -1.10665 -1.67204 128 128 128
3.30042 -1.59227 -3.09832 128 128 128
3.4464 -1.36887 -1.55697 128 128 128
3.26731 -2.24732 -1.52528 128 128 128
3.29333 -0.415628 -1.62076 128 128 128
3.27358 -0.415569 -1.62351 128 128 128
3.32706 -0.429456 -1.62667 128 128 128
2.91556 -1.94832 -2.13524 128 128 128
2.66128 -1.84298 -2.15609 128 128 128
3.01955 -1.9467 -2.12416 128 128 128
2.77369 -1.86857 -3.16185 128 128 128
2.60577 -0.329375 -1.59469 128 128 128
2.85981 -1.94995 -2.13017 128 128 128
2.80806 0.636708 -1.73806 128 128 128
2.72637 0.672793 -1.73127 128 128 128
2.80552 0.639264 -1.73686 128 128 128
2.74054 -0.375481 -1.60816 128 128 128
2.65532 0.70275 -1.73612 128 128 128
2.52956 -1.89622 -3.13868 128 128 128
2.16776 -1.95817 -3.21224 128 128 128
2.41173 -1.66036 -2.22971 128 128 128
2.40846 -1.63315 -2.22972 128 128 128
2.30683 -1.62996 -2.23124 128 128 128
2.23488 0.816239 -1.83134 128 128 128
2.28491 0.77472 -1.84948 128 128 128
2.19501 -1.62499 -1.7554 128 128 128
2.38175 -1.63706 -1.76703 128 128 128
4.65906 -2.22121 -2.78451 128 128 128
4.37071 -1.28355 -1.27615 128 128 128
4.41458 -1.24578 -1.28133 128 128 128
4.34439 -1.2722 -1.25948 128 128 128
4.37852 -1.25774 -1.27141 128 128 128
4.38459 -1.23701 -1.27308 128 128 128
4.23249 -1.89885 -1.46483 128 128 128
4.15803 -2.3317 -2.70661 128 128 128
4.17964 -2.25947 -2.68647 128 128 128
4.27359 -1.8939 -1.46758 128 128 128
4.30407 -1.81411 -1.45603 128 128 128
4.28922 -1.88998 -1.47069 128 128 128
4.22667 -1.81851 -1.43743 128 128 128
3.74239 -1.7104 -1.54759 128 128 128
3.60217 -1.24587 -1.64054 128 128 128
3.99838 -2.32912 -1.66744 128 128 128
-1.05535 0.131081 -3.30052 128 128 128
-1.27998 -1.45718 3.00332 128 128 128
2.43399 -1.35615 -1.7181 128 128 128
-0.424613 1.53395 -1.70815 128 128 128
-1.22806 -0.534637 -1.75265 128 128 128
-0.8192 0.304216 -1.60548 128 128 128
-0.759487 0.311353 -1.62252 128 128 128
-0.935285 -0.992305 -1.77699 128 128 128
-1.0049 -0.997469 -1.75747 128 128 128
-0.962666 -0.991569 -1.76344 128 128 128
-0.843444 -0.491658 -1.78281 128 128 128
-0.943482 -0.989884 -1.78248 128 128 128
-0.948049 -0.497115 -1.76909 128 128 128
-0.777547 -0.444562 -1.73511 128 128 128
-1.48933 0.702863 -1.09474 128 128 128
-1.56423 0.734058 -1.05993 128 128 128
-1.65085 0.538943 -0.976894 128 128 128
-1.46898 0.512116 -1.16542 128 128 128
-1.57519 0.528167 -1.13634 128 128 128
-1.58668 0.518338 -1.1458 128 128 128
-1.20595 0.404293 -1.10737 128 128 128
-1.73751 -0.219981 -0.993626 128 128 128
-2.80223 -0.0981146 -0.481636 128 128 128
-2.30606 1.92698 -0.320873 128 128 128
-2.53311 -0.131988 -0.60411 128 128 128
-2.42979 0.734978 -0.496928 128 128 128
0.237631 -1.36704 -0.919992 128 128 128
0.27191 -1.36513 -0.947125 128 128 128
0.264912 -1.36876 -0.952777 128 128 128
0.271091 -1.36226 -0.968991 128 128 128
6.81306 -2.2992 -0.900399 128 128 128
5.68481 -2.86609 -1.12592 128 128 128
5.56613 -2.83524 -1.28295 128 128 128
4.9986 -2.74495 -1.21716 128 128 128
5.35745 -1.73193 -1.17723 128 128 128
5.09408 -2.69483 -1.2537 128 128 128
5.09917 0.124917 -1.21317 128 128 128
5.01283 -2.68375 -1.30806 128 128 128
5.20284 0.0631383 -1.21084 128 128 128
4.19464 -0.165173 -1.27607 128 128 128
4.08792 -1.90533 -1.39897 128 128 128
3.95153 -2.30539 -1.31883 128 128 128
4.17964 -0.159621 -1.27265 128 128 128
4.14807 -0.157046 -1.2726 128 128 128
4.17596 -0.174055 -1.27881 128 128 128
3.79097 -1.84771 -1.41093 128 128 128
3.91612 -2.34274 -1.65125 128 128 128
3.33338 -1.16826 -1.63947 128 128 128
2.47097 -1.70384 -1.61023 128 128 128
7.80343 -3.27547 -0.710801 128 128 128
7.34554 -1.13265 -0.793047 128 128 128
6.95256 -1.81025 -0.951587 128 128 128
6.84542 -1.77837 -0.918649 128 128 128
6.92466 -1.95292 -0.894192 128 128 128
6.91433 -1.94845 -0.885205 128 128 128
6.90695 -1.95294 -0.887532 128 128 128
6.9184 -1.96636 -0.90696 128 128 128
6.94891 -1.81753 -0.941949 128 128 128
6.93006 -1.81672 -0.933181 128 128 128
6.86527 -2.30567 -0.915981 128 128 128
6.86467 -1.3481 -0.923562 128 128 128
6.93017 -1.92996 -0.947301 128 128 128
6.94756 -1.93719 -0.956332 128 128 128
6.80691 -2.75799 -0.957448 128 128 128
6.90173 -1.35225 -0.928507 128 128 128
6.94139 -1.93926 -0.950719 128 128 128
6.75115 -2.66643 -0.972199 128 128 128
6.36329 -3.0022 -1.02598 128 128 128
6.87543 -0.386649 -2.36555 128 128 128
6.22157 -1.9526 -1.02701 128 128 128
6.37338 -2.96496 -1.10414 128 128 128
5.9988 -2.99352 -1.06093 128 128 128
5.89012 -2.92539 -1.13295 128 128 128
5.66695 -2.84912 -1.14608 128 128 128
5.94246 -1.59933 -2.53454 128 128 128
5.74331 -1.5551 -2.59769 128 128 128
5.64052 -2.83196 -1.24617 128 128 128
5.4855 -2.70095 -2.57338 128 128 128
5.2626 -1.70845 -1.17671 128 128 128
5.40865 -1.73229 -1.18815 128 128 128
5.29743 -1.71917 -1.18034 128 128 128
5.0828 -2.69292 -1.25469 128 128 128
5.12048 -2.68079 -1.25594 128 128 128
5.02647 -0.784329 -1.1914 128 128 128
5.21541 -0.851667 -1.20525 128 128 128
4.84387 -0.0600275 -1.36741 128 128 128
4.71596 -1.87172 -1.34173 128 128 128
4.16175 -1.89481 -1.45526 128 128 128
3.99511 -1.02996 -1.57488 128 128 128
3.89626 -2.31137 -1.52698 128 128 128
3.63905 -0.853198 -1.64264 128 128 128
3.31035 -1.20289 -1.63125 128 128 128
2.9364 0.564271 -1.65655 128 128 128
3.0877 -0.336516 -1.63128 128 128 128
2.08484 -1.85934 -2.28162 128 128 128
2.28923 -1.86377 -2.23786 128 128 128
2.4122 -1.86697 -2.19519 128 128 128
2.45284 -0.638398 -1.889 128 128 128
3.77702 0.0124567 -1.24451 128 128 128
2.03806 -1.28904 -1.75661 128 128 128
-0.386574 -0.0268153 -3.17568 128 128 128
-0.625639 -1.06739 -3.06001 128 128 128
-0.0280555 -1.17885 -3.51091 128 128 128
-0.179891 -1.17964 -3.63823 128 128 128
-0.481784 -0.568735 -3.48646 128 128 128
-0.503811 -0.597245 -3.57167 128 128 128
-0.330488 -0.617781 -3.79146 128 128 128
-0.515706 -1.1421 -3.72548 128 128 128
-4.23628 -0.346675 -2.03028 128 128 128
-4.44801 -0.13697 -2.26324 128 128 128
-5.31225 -0.122116 -2.27976 128 128 128
-5.14597 -0.102394 -2.26088 128 128 128
-10.197 1.10267 -3.75198 128 128 128
0.666354 -0.580244 -7.10884 128 128 128
-0.716102 -1.25172 -4.04583 128 128 128
1.00306 -1.58462 -3.65657 128 128 128
0.892005 -0.302088 -3.51454 128 128 128
1.022 -0.567438 -3.61734 128 128 128
1.02504 -0.344162 -3.74216 128 128 128
-0.290775 -1.23452 -3.84865 128 128 128
1.3879 -1.02507 -3.47193 128 128 128
2.70141 -1.99078 -3.23227 128 128 128
2.39127 -1.83245 -3.13426 128 128 128
1.73228 -1.63381 -3.18275 128 128 128
2.39156 -1.83177 -3.12208 128 128 128
2.07493 -1.66824 -3.05604 128 128 128
0.968688 -0.00406501 -3.53379 128 128 128
-0.822114 -0.53836 -2.09797 128 128 128
1.01735 -1.4853 -3.47213 128 128 128
0.484109 -1.19329 -3.29279 128 128 128
-0.790051 -0.489551 -1.85859 128 128 128
-0.871016 -0.546181 -2.12315 128 128 128
-0.756639 -0.529335 -2.22609 128 128 128
-0.769918 -0.535292 -2.23693 128 128 128
-0.45273 -0.376561 -2.38107 128 128 128
-0.487691 -0.38309 -2.42265 128 128 128
-0.65666 -0.535326 -2.54494 128 128 128
-0.515123 -0.659038 -2.54189 128 128 128
-0.556568 -0.477542 -2.59883 128 128 128
-0.595673 -0.381006 -2.76108 128 128 128
-0.507088 -0.371682 -2.82001 128 128 128
-0.495107 -0.372243 -2.78927 128 128 128
-0.488682 -0.434592 -2.7835 128 128 128
-0.494332 -0.445072 -2.80258 128 128 128
-0.538529 -0.492535 -2.80113 128 128 128
0.503053 -0.875259 -3.88091 128 128 128
-0.307855 -0.22364 -3.03597 128 128 128
-0.601507 -0.470297 -2.95296 128 128 128
-0.810049 -0.556199 -2.33217 128 128 128
-0.997183 -0.610672 -2.54663 128 128 128
-0.83436 -0.584956 -2.41991 128 128 128
-0.848193 -0.589939 -2.46539 128 128 128
0.466757 -1.35075 -3.5653 128 128 128
4.21522 -1.85775 -1.39198 128 128 128
2.30719 -1.18513 -1.64703 128 128 128
2.60176 -0.17575 -1.7129 128 128 128
3.59012 -1.75419 -1.56873 128 128 128
3.75315 -0.475437 -1.51819 128 128 128
3.5278 -2.01301 -1.55049 128 128 128
3.51566 -2.11993 -1.56372 128 128 128
3.4585 -2.1654 -1.58253 128 128 128
4.8655 -2.43714 -2.60285 128 128 128
4.67147 -1.81022 -2.78491 128 128 128
0.347436 -0.141527 0.54572 128 128 128
-2.11484 1.47531 1.72144 128 128 128
-3.4232 -0.49271 1.42134 128 128 128
-2.40383 -0.579534 1.57388 128 128 128
-1.79247 -0.855526 2.36722 128 128 128
-3.85511 -0.586803 0.897171 128 128 128
-3.19814 0.538203 3.22418 128 128 128
-3.26774 -0.407696 2.93145 128 128 128
-5.3877 0.696337 1.21059 128 128 128
-3.27926 -0.521208 2.94549 128 128 128
-3.58326 -0.668062 3.29301 128 128 128
-5.9186 1.29422 1.59494 128 128 128
-3.29718 0.734187 3.34123 128 128 128
-3.04743 0.995865 3.15854 128 128 128
-4.28797 1.62886 1.07203 128 128 128
-3.43365 -0.609019 3.02583 128 128 128
-3.22916 0.614927 3.43248 128 128 128
-6.50671 1.47315 1.83678 128 128 128
-5.94906 0.0478962 1.57471 128 128 128
-6.68153 1.83234 2.25248 128 128 128
-5.30547 2.46486 1.88956 128 128 128
-4.6243 -0.361731 2.58367 128 128 128
-6.41446 0.61661 1.90921 128 128 128
-8.04017 2.34542 3.46856 128 128 128
-5.55265 0.0139735 3.35515 128 128 128
-1.29033 -0.884414 0.229732 128 128 128
-1.29796 -0.861614 0.438055 128 128 128
-0.820953 -0.984354 0.846352 128 128 128
-2.13122 -0.862636 0.212369 128 128 128
-1.92208 -0.77475 0.338779 128 128 128
0.0164046 0.364434 0.424397 128 128 128
0.141979 -0.244122 0.742853 128 128 128
0.127378 -0.269817 0.8502 128 128 128
0.0647072 -0.173629 0.8744 128 128 128
-0.0917363 0.227716 0.413728 128 128 128
-0.0419423 0.554188 0.411761 128 128 128
0.000736032 0.473829 0.393644 128 128 128
-0.148019 0.263963 0.537414 128 128 128
0.144205 -0.287991 0.889089 128 128 128
0.39623 -0.454635 1.13617 128 128 128
0.378254 -0.444918 1.09646 128 128 128
-1.43214 -0.968454 0.149163 128 128 128
-1.29071 -0.903118 0.0700355 128 128 128
-1.82949 -0.783522 -0.174987 128 128 128
-1.7985 -0.77396 -0.15782 128 128 128
-2.46576 -0.704556 1.19956 128 128 128
-2.28069 -0.66092 1.11135 128 128 128
-2.63941 -0.607058 0.866717 128 128 128
-2.39641 -0.692059 1.19327 128 128 128
-2.35149 -0.682919 1.20495 128 128 128
-1.87428 1.33856 1.49174 128 128 128
-3.56863 -0.517546 1.82209 128 128 128
-2.88797 -0.64696 1.813 128 128 128
-1.627 -0.676034 2.26425 128 128 128
-3.84073 -0.547976 2.00066 128 128 128
-3.49641 -0.501572 1.76722 128 128 128
-2.0505 -0.93359 3.00331 128 128 128
-2.72439 1.7221 2.886 128 128 128
-2.85371 -0.772169 2.96029 128 128 128
-2.8292 0.295627 2.65114 128 128 128
-3.28284 -0.47132 2.21794 128 128 128
-2.55375 1.62429 2.69431 128 128 128
-2.75681 -0.821641 3.03637 128 128 128
-3.26412 0.720882 2.55559 128 128 128
-3.25402 0.775426 2.56209 128 128 128
-3.19954 0.701277 2.49148 128 128 128
-3.34625 0.973416 2.64512 128 128 128
-2.75103 0.89913 2.80529 128 128 128
-3.0653 0.743133 2.37461 128 128 128
-3.40078 0.985555 2.70737 128 128 128
-3.51901 -0.130055 2.52876 128 128 128
-3.31518 0.915443 2.55768 128 128 128
-3.16533 0.908712 2.45947 128 128 128
-5.81213 0.556324 5.77775 128 128 128
-3.68122 -0.126828 2.66644 128 128 128
-3.66678 -0.120982 2.62985 128 128 128
-3.38863 -0.596094 2.92926 128 128 128
-3.31868 -0.14264 2.99326 128 128 128
-5.05729 0.234693 2.28446 128 128 128
0.365538 -0.0871515 0.660764 128 128 128
0.00177839 0.0282578 0.333746 128 128 128
-1.9041 -0.789469 0.0935985 128 128 128
-1.80898 -0.756082 0.126557 128 128 128
-2.22924 -0.590343 0.0912967 128 128 128
-2.44434 -0.636375 0.152279 128 128 128
-1.04228 -1.07402 1.06725 128 128 128
0.020719 0.0665705 0.333635 128 128 128
0.310034 -0.0845217 0.48723 128 128 128
-1.27123 -0.886527 0.0959335 128 128 128
-1.37966 -0.937752 0.169149 128 128 128
-1.21398 -0.851097 0.144532 128 128 128
-1.36713 -0.911497 0.328638 128 128 128
-1.26023 -0.854681 0.335883 128 128 128
-1.22453 -0.818579 0.433293 128 128 128
-0.683975 -0.970439 1.13125 128 128 128
-2.42628 -0.400226 0.313942 128 128 128
-1.62485 -0.626203 0.922505 128 128 128
-2.44296 -0.622459 0.861799 128 128 128
-1.65911 -0.6101 1.26947 128 128 128
0.010275 0.273313 1.02196 128 128 128
-1.96528 -0.801161 0.221728 128 128 128
-0.428923 -1.28786 1.07241 128 128 128
-2.4415 -0.622915 0.436604 128 128 128
-1.5525 -0.956594 0.96984 128 128 128
-0.670898 -1.29167 1.29961 128 128 128
-1.61926 -0.937477 1.22528 128 128 128
-0.930879 -1.17195 1.53662 128 128 128
-1.66096 -0.945618 1.36387 128 128 128
-1.89107 -0.692633 1.27574 128 128 128
-0.911302 -0.574397 1.86226 128 128 128
-2.44944 -0.580156 1.5859 128 128 128
-1.68897 -0.919828 2.11023 128 128 128
-2.22427 -0.981962 2.31176 128 128 128
-2.51122 -0.380654 2.79641 128 128 128
-1.9391 -0.317668 2.10596 128 128 128
-3.65446 0.367887 2.76057 128 128 128
-3.23404 0.0417094 2.97583 128 128 128
-2.45988 -2.24185 5.86388 128 128 128
-3.05638 -2.63313 7.22962 128 128 128
-2.28846 -2.02155 5.30098 128 128 128
-6.36711 -1.25904 3.59959 128 128 128
0.256572 -0.142388 0.223254 128 128 128
0.515802 -0.0713508 0.68963 128 128 128
-2.62665 -0.385962 3.0387 128 128 128
-2.75186 -0.873684 2.89742 128 128 128
-2.70169 -0.87056 4.69255 128 128 128
-7.21502 -0.551079 4.44447 128 128 128
-5.46514 -0.374129 3.11501 128 128 128
0.770145 -0.282056 0.311009 128 128 128
0.53248 0.163616 0.51756 128 128 128
0.469221 0.188923 0.54139 128 128 128
-0.0783135 0.64043 0.283369 128 128 128
-0.0888329 0.647777 0.296291 128 128 128
-0.0857878 0.645529 0.291954 128 128 128
-0.045779 0.597371 0.231272 128 128 128
0.344493 -0.142495 0.560924 128 128 128
-2.84575 -0.70753 1.11624 128 128 128
-2.41356 -0.695807 1.19377 128 128 128
-2.79639 -0.630658 0.963871 128 128 128
-3.96245 -0.366809 0.418429 128 128 128
-3.24815 -0.171081 0.520449 128 128 128
0.467951 0.188941 0.556401 128 128 128
-0.075604 0.639796 0.293496 128 128 128
0.393893 -0.0817918 0.547932 128 128 128
-0.462463 -0.204914 -3.20661 128 128 128
-0.409102 0.538413 -2.97656 128 128 128
-0.456176 0.0911744 -2.95737 128 128 128
-0.317341 0.494037 -2.96729 128 128 128
-0.330983 0.530824 -2.99473 128 128 128
-0.517607 -0.264415 -2.86736 128 128 128
-0.5232 -0.32149 -2.69171 128 128 128
-0.575457 -0.434114 -2.88433 128 128 128
-0.433722 0.0990622 -2.95239 128 128 128
-0.560001 -0.445709 -2.94796 128 128 128
-0.626567 -0.538096 -2.96806 128 128 128
-0.427954 -0.98326 -3.62349 128 128 128
-0.631004 -0.439525 -2.70887 128 128 128
-0.865344 -0.353981 -3.02837 128 128 128
-0.723159 -0.30802 -2.71969 128 128 128
-0.831527 -1.01709 -2.43036 128 128 128
-0.725029 -0.415474 -2.47431 128 128 128
-0.834655 -1.02504 -2.50718 128 128 128
-0.68287 -0.335928 -2.41136 128 128 128
-0.719375 -0.350883 -2.4264 128 128 128
-0.722229 -0.359097 -2.48191 128 128 128
-0.882624 -0.906298 1.64351 128 128 128
-2.14259 -0.794754 0.890125 128 128 128
-1.03899 -1.20737 1.75472 128 128 128
-1.89221 -0.923191 1.05784 128 128 128
-1.88048 -0.908324 1.03899 128 128 128
-3.14743 0.707227 0.0913573 128 128 128
-3.11523 0.73163 0.0750794 128 128 128
-2.03555 -0.86501 1.02734 128 128 128
-2.5935 -0.704598 1.22115 128 128 128
-1.88451 -0.827149 1.62682 128 128 128
-3.46507 2.18179 0.583058 128 128 128
-2.75138 -0.578972 1.65075 128 128 128
-1.76052 -0.77166 2.27965 128 128 128
-1.52089 -0.863611 3.58415 128 128 128
-1.90714 -0.925853 2.75016 128 128 128
-2.1385 1.72513 2.87816 128 128 128
-2.38435 0.946326 2.92904 128 128 128
-2.88718 1.01385 2.88315 128 128 128
-2.85212 -0.713599 2.8221 128 128 128
-4.05986 1.19516 2.52798 128 128 128
-3.3298 0.728541 3.9191 128 128 128
-6.91566 0.658136 2.14383 128 128 128
-3.74869 1.65451 6.11945 128 128 128
-2.73701 -0.809611 6.56199 128 128 128
-5.10402 2.40523 9.42999 128 128 128
-3.95349 1.74108 10.3358 128 128 128
-3.33047 -0.470278 -0.0116184 128 128 128
-2.53141 -0.629263 -0.224424 128 128 128
0.0720516 0.027241 0.939417 128 128 128
0.0850129 0.0146415 0.89777 128 128 128
-0.580577 0.790115 1.07961 128 128 128
-0.263424 0.467582 1.42496 128 128 128
-0.916742 -0.923422 1.59532 128 128 128
-0.745422 -0.875067 1.34901 128 128 128
-1.73246 0.576622 -1.03205 128 128 128
-0.991188 -0.829087 1.67043 128 128 128
-1.17839 -0.971095 2.02599 128 128 128
-1.84762 -0.839936 0.829937 128 128 128
-1.87632 -0.836871 0.856637 128 128 128
-1.94928 -0.912655 2.94718 128 128 128
-1.70739 -0.852018 2.45106 128 128 128
-2.4929 1.92377 -0.217292 128 128 128
-1.79461 -0.611076 2.79545 128 128 128
-3.09248 0.924306 0.106608 128 128 128
-2.32309 -0.937618 2.37379 128 128 128
-1.82145 -0.87824 2.74332 128 128 128
-1.95469 -0.917959 2.95465 128 128 128
-2.77116 0.825788 -0.0742453 128 128 128
-2.97423 0.854718 0.0194612 128 128 128
-1.88999 1.6901 2.79325 128 128 128
-2.36018 1.79316 3.12445 128 128 128
-2.22662 1.66869 2.84364 128 128 128
-3.03318 1.95971 0.285286 128 128 128
-3.55024 1.00305 0.366622 128 128 128
-3.29507 1.77266 0.366554 128 128 128
-2.2592 -0.944481 2.18323 128 128 128
-2.78049 0.866959 2.7222 128 128 128
-2.16944 -0.901671 2.02406 128 128 128
-3.57901 -0.424315 0.1648 128 128 128
-2.44932 0.729495 2.7639 128 128 128
-2.54242 -0.315575 2.66839 128 128 128
-2.47994 0.916732 2.95266 128 128 128
-2.51292 0.856968 2.41993 128 128 128
-2.9139 0.464459 2.66545 128 128 128
-2.08504 1.47167 3.02413 128 128 128
-2.52608 -0.737655 2.68939 128 128 128
-2.53723 1.00504 3.14894 128 128 128
-3.37866 -0.328293 2.81655 128 128 128
-2.80664 1.88497 2.59074 128 128 128
-3.3762 -0.377073 2.78388 128 128 128
-3.17072 -0.567771 4.91738 128 128 128
-3.55149 1.03636 2.84953 128 128 128
-3.4026 0.987851 2.66719 128 128 128
-3.98621 1.17116 2.45037 128 128 128
-3.49799 1.01979 2.80056 128 128 128
-4.29916 0.0290796 2.42898 128 128 128
-4.51195 0.036995 2.61201 128 128 128
0.437144 -0.109652 0.629295 128 128 128
0.443369 -0.111041 0.636161 128 128 128
0.43898 -0.112525 0.658301 128 128 128
0.0510743 -0.147924 0.894481 128 128 128
-0.326051 -1.11528 0.65308 128 128 128
-3.10369 1.01208 0.140464 128 128 128
-3.1548 0.651729 0.0567576 128 128 128
-3.61776 1.00809 0.419257 128 128 128
-2.72244 1.96621 0.0909272 128 128 128
-3.36848 -0.560988 2.5347 128 128 128
-3.33062 -0.459578 -0.0467658 128 128 128
-3.39232 -0.395429 0.0649457 128 128 128
-3.33293 -0.459207 -0.0600514 128 128 128
-3.12483 -0.587646 1.87437 128 128 128
-3.43896 -0.485921 2.31367 128 128 128
-2.57948 1.47843 -0.044998 128 128 128
-3.42369 1.77058 0.450647 128 128 128
-3.06405 1.65827 0.230607 128 128 128
-3.53021 0.994259 2.75889 128 128 128
-3.34295 0.942808 2.58853 128 128 128
-3.32594 0.930039 2.53976 128 128 128
-3.35494 0.921517 2.52804 128 128 128
-4.09905 1.20596 2.56288 128 128 128
-4.60132 3.15223 1.57048 128 128 128
0.188127 -1.29018 -0.137695 128 128 128
-0.455119 -1.17181 -1.73043 128 128 128
0.165499 -1.30441 -0.0745252 128 128 128
-0.913798 -0.497687 -1.74898 128 128 128
-0.842143 -0.0337668 -1.66532 128 128 128
-0.858234 -0.0328497 -1.66113 128 128 128
-0.400492 0.485011 1.41104 128 128 128
0.91311 -1.41038 -3.55258 128 128 128
-0.324364 0.0225122 -3.1278 128 128 128
-0.401111 -0.314711 -2.55168 128 128 128
-0.286323 0.527914 -2.99236 128 128 128
-0.276506 0.541382 -2.97306 128 128 128
-0.464683 -0.317979 -2.54208 128 128 128
0.737904 -1.38972 -3.37716 128 128 128
0.81396 -1.38168 -3.34088 128 128 128
0.715241 -1.44505 -2.16183 128 128 128
0.549969 -1.37286 -2.33909 128 128 128
0.305845 -1.26795 -3.51232 128 128 128
0.261878 -1.26964 -3.52125 128 128 128
0.309421 -1.25104 -3.4911 128 128 128
0.319144 -1.24565 -3.48811 128 128 128
0.0542862 1.47171 -3.60657 128 128 128
-0.0193666 1.51243 -3.62776 128 128 128
-0.515263 -1.20062 -2.32995 128 128 128
-0.453738 0.110405 -3.22419 128 128 128
-0.087818 1.45983 -2.79945 128 128 128
-0.432214 -0.437101 -3.67701 128 128 128
-0.391203 -0.450445 -3.67758 128 128 128
-0.0914965 1.47818 -2.85823 128 128 128
-0.382319 0.579909 -2.9706 128 128 128
-0.378608 0.5207 -2.96042 128 128 128
-0.426337 0.101987 -2.94776 128 128 128
-0.530525 -0.976866 -3.64633 128 128 128
-0.535485 -0.0569611 -3.01714 128 128 128
-0.528427 -0.0711523 -2.96235 128 128 128
-0.503513 -0.0752512 -2.96409 128 128 128
-0.422474 -0.152355 -2.98829 128 128 128
-0.564554 -0.309044 -2.54125 128 128 128
-0.565108 -0.449631 -2.88486 128 128 128
-0.541252 -0.381876 -2.87046 128 128 128
-0.501208 -0.43199 -2.8635 128 128 128
-0.727677 -0.983457 -2.89372 128 128 128
-0.75721 -0.988412 -2.90055 128 128 128
-0.663383 -0.447467 -2.51572 128 128 128
-0.622277 -0.441944 -2.52255 128 128 128
-0.334744 1.50723 -1.6981 128 128 128
-0.753076 0.336419 -1.62807 128 128 128
-0.893925 0.330775 -1.58537 128 128 128
-0.369345 1.5082 -1.68854 128 128 128
-0.343963 1.50842 -1.70257 128 128 128
-0.804557 -0.564315 -2.44646 128 128 128
2.33161 -1.59595 -1.80609 128 128 128
2.39313 -1.58236 -1.78647 128 128 128
2.45299 -1.58139 -1.81424 128 128 128
2.49161 -1.85532 -3.08849 128 128 128
2.836 0.617512 -1.73913 128 128 128
2.3571 -1.81617 -3.11958 128 128 128
2.4285 -1.35884 -1.71199 128 128 128
2.59548 -0.23723 -1.61729 128 128 128
2.38236 -1.81766 -3.10221 128 128 128
2.22761 -1.78167 -3.19658 128 128 128
2.58597 -0.168931 -1.70192 128 128 128
2.35706 -1.78126 -3.13125 128 128 128
2.2374 -1.75036 -3.22999 128 128 128
2.33999 -0.531595 -1.79776 128 128 128
2.32215 -0.525155 -1.78698 128 128 128
2.31072 -1.26735 -1.77559 128 128 128
2.02534 -0.742592 -1.76093 128 128 128
2.12359 -1.74071 -3.14967 128 128 128
2.07924 -1.74031 -3.15565 128 128 128
2.12587 0.0043044 -1.83696 128 128 128
1.87191 -1.69224 -3.26561 128 128 128
2.1521 -0.00482821 -1.83918 128 128 128
1.81864 -1.67833 -3.26614 128 128 128
1.89976 -0.686685 -1.84855 128 128 128
1.94523 -1.60632 -1.84639 128 128 128
1.72917 -1.63096 -3.22973 128 128 128
1.68664 -1.41437 -1.93856 128 128 128
1.54132 -1.42772 -1.9125 128 128 128
1.54063 -1.4306 -1.91139 128 128 128
1.3951 -0.962011 -3.40609 128 128 128
1.26443 -1.51798 -3.30265 128 128 128
1.07634 -1.39974 -3.49855 128 128 128
0.83933 -1.4328 -3.35184 128 128 128
1.02887 -1.43248 -3.29547 128 128 128
1.02373 -1.44688 -3.30387 128 128 128
0.820687 -1.44464 -3.36079 128 128 128
0.995421 -1.316 -3.51832 128 128 128
0.267943 -1.43931 -2.34984 128 128 128
0.789051 1.26257 -3.53408 128 128 128
-0.133494 -0.454301 -3.57921 128 128 128
-0.132922 1.48843 -2.87554 128 128 128
-0.447362 -0.510878 -3.72348 128 128 128
-0.447002 -0.0696228 -2.96153 128 128 128
-0.574436 -0.43084 -2.96249 128 128 128
-0.50195 -0.0686317 -2.96337 128 128 128
-0.52737 -0.265056 -2.86486 128 128 128
-0.597071 -0.812337 -2.93621 128 128 128
-0.581036 -0.330666 -2.70816 128 128 128
-0.707552 -0.35747 -2.52004 128 128 128
-0.603768 -1.0228 -2.91073 128 128 128
-0.371409 0.0215164 -2.96635 128 128 128
2.84132 -1.72068 -1.70601 128 128 128
2.8077 -1.72047 -1.6906 128 128 128
0.361142 -1.31537 -3.56697 128 128 128
2.60191 -0.172476 -1.71034 128 128 128
2.21175 -1.79584 -3.21649 128 128 128
2.30326 -1.2695 -1.77022 128 128 128
2.36121 -0.970223 -1.78208 128 128 128
2.36021 -0.964411 -1.77801 128 128 128
2.29805 -1.27287 -1.77144 128 128 128
2.28837 -1.27388 -1.76609 128 128 128
2.29949 -1.27122 -1.77283 128 128 128
2.29459 -1.27503 -1.7697 128 128 128
2.36818 -0.53685 -1.78597 128 128 128
2.40671 -0.549051 -1.8116 128 128 128
2.19602 -1.78648 -3.2007 128 128 128
2.17449 -1.78313 -3.19767 128 128 128
2.2836 -0.786027 -1.78793 128 128 128
2.30603 -0.783539 -1.78322 128 128 128
2.20926 0.814403 -1.84545 128 128 128
2.20372 0.815905 -1.84707 128 128 128
1.68353 -1.64724 -3.24206 128 128 128
1.488 -1.6731 -2.01088 128 128 128
1.30811 -1.66642 -2.08798 128 128 128
1.27074 -1.54033 -3.32334 128 128 128
0.893567 -1.48861 -3.46906 128 128 128
0.950607 -1.54401 -2.16895 128 128 128
0.868007 -1.43341 -3.35756 128 128 128
0.276362 -1.34494 -3.6066 128 128 128
0.650453 -1.4334 -2.2949 128 128 128
0.393332 -1.33209 -3.5647 128 128 128
0.679155 -1.42596 -2.30314 128 128 128
0.461588 -1.3974 -2.32334 128 128 128
0.837399 1.24579 -3.51702 128 128 128
0.732727 1.31143 -3.55558 128 128 128
0.155702 1.36102 -3.55445 128 128 128
0.0497036 -0.596426 -3.642 128 128 128
-0.337866 -0.559773 -3.73533 128 128 128
0.0197527 1.47772 -3.61099 128 128 128
-0.384482 0.0894409 -3.2059 128 128 128
-0.323904 -0.558397 -3.73127 128 128 128
-0.357899 -0.0844088 -3.20677 128 128 128
-0.408919 -1.17259 -2.36393 128 128 128
3.31467 -0.421448 -1.61882 128 128 128
-0.541882 0.359669 -1.74424 128 128 128
-0.626412 0.220862 -1.77384 128 128 128
-0.711464 -0.463382 -1.84334 128 128 128
-0.718669 -0.152532 -1.77243 128 128 128
-0.66793 -0.446398 -1.8235 128 128 128
-0.724641 -0.472326 -1.85362 128 128 128
-0.723061 -0.469764 -1.84308 128 128 128
-0.763868 -0.48142 -1.84925 128 128 128
-0.710896 -0.468329 -1.83805 128 128 128
-0.763805 -0.517886 -1.85793 128 128 128
-0.772614 -0.526432 -1.84677 128 128 128
-1.22791 -0.927212 -1.47008 128 128 128
-1.21713 -0.900427 -1.4635 128 128 128
-2.64274 1.98057 0.00277498 128 128 128
-2.24265 1.86529 -0.368091 128 128 128
-2.91089 2.15711 -0.0639158 128 128 128
-2.71682 0.09642 -0.410571 128 128 128
-2.99144 1.60072 0.138188 128 128 128
-2.81892 0.00945315 -0.523397 128 128 128
-2.88978 1.55425 0.108168 128 128 128
-2.27889 0.00332607 -0.272472 128 128 128
-3.40499 -0.33107 0.0835117 128 128 128
-4.22325 -0.335048 -2.03076 128 128 128
-4.07088 1.44371 -2.10803 128 128 128
-3.75841 1.12451 0.486334 128 128 128
-7.37188 0.879479 -2.94052 128 128 128
-0.48236 0.560049 -1.75732 128 128 128
-0.49689 0.569297 -1.75818 128 128 128
-0.502571 0.570507 -1.76279 128 128 128
-0.492635 0.556018 -1.76832 128 128 128
-0.510182 0.514782 -1.7523 128 128 128
-0.558388 0.534853 -1.77069 128 128 128
-0.558325 0.301575 -1.74413 128 128 128
-0.571987 0.304487 -1.75236 128 128 128
-0.564959 0.536739 -1.77267 128 128 128
-0.575078 0.478534 -1.76529 128 128 128
-0.710761 -0.149102 -1.76395 128 128 128
-0.748236 -0.488896 -1.7696 128 128 128
-0.735121 -0.499667 -1.76609 128 128 128
-0.768855 -0.518005 -1.8556 128 128 128
-0.713393 -0.524851 -1.84112 128 128 128
-0.621795 -0.365478 -2.55835 128 128 128
-0.715063 -0.505541 -1.83568 128 128 128
-0.738555 -0.494528 -1.77261 128 128 128
-0.804861 -0.51982 -1.79742 128 128 128
-0.700391 -0.383944 -1.75025 128 128 128
-0.766767 -0.522595 -1.85723 128 128 128
-0.743073 -0.393172 -1.76518 128 128 128
-0.758866 -0.39781 -1.76574 128 128 128
-0.744278 -0.394064 -1.76003 128 128 128
-0.766587 -0.402177 -1.77146 128 128 128
-0.952968 -0.923293 -1.63008 128 128 128
-1.08475 -0.971389 -1.61466 128 128 128
-1.08314 -0.970617 -1.59991 128 128 128
-1.22537 -0.915157 -1.4643 128 128 128
-1.35745 -0.807147 -1.326 128 128 128
-1.45694 -0.280166 -1.19411 128 128 128
-1.53279 -0.749914 -1.19254 128 128 128
-1.48959 0.816001 -1.14636 128 128 128
-1.48925 0.824842 -1.16507 128 128 128
-1.47105 0.666425 -1.07751 128 128 128
-1.78811 0.94027 -1.17315 128 128 128
-1.52823 0.684479 -1.0624 128 128 128
-1.41591 0.665426 -1.07019 128 128 128
-1.72591 0.906762 -1.15553 128 128 128
-1.51443 0.688124 -1.06549 128 128 128
-1.41415 0.734792 -1.14513 128 128 128
-1.5003 0.825087 -1.18588 128 128 128
-1.43174 0.650103 -1.07307 128 128 128
-1.67499 -0.192307 -1.0808 128 128 128
-1.71991 -0.196915 -1.07994 128 128 128
-1.89405 -0.837219 -1.10186 128 128 128
-1.74041 -0.712055 -1.11119 128 128 128
-1.91233 -0.824487 -0.218245 128 128 128
-2.04448 -0.872414 -0.179021 128 128 128
-2.10189 -0.832476 -0.30369 128 128 128
-2.24009 0.725299 -0.702363 128 128 128
-2.14418 0.702934 -0.720442 128 128 128
-1.98984 -0.0685161 -0.725049 128 128 128
-2.28164 -0.0355951 -0.676391 128 128 128
-2.46475 -0.0613306 -0.645478 128 128 128
-2.35459 0.907868 -0.630783 128 128 128
-2.23635 1.84586 -0.174316 128 128 128
-2.56418 -0.656181 -0.380416 128 128 128
-2.71994 -0.00572163 -0.48911 128 128 128
-2.91918 -0.0415174 -0.452744 128 128 128
-4.40569 1.19363 0.979836 128 128 128
-3.58447 -0.142703 -1.99593 128 128 128
-2.3105 -0.0269956 -0.681571 128 128 128
-2.70707 -0.780878 -0.29917 128 128 128
-2.52262 -0.655466 -0.492514 128 128 128
-2.57835 -0.610267 -0.519547 128 128 128
-3.79079 -0.315441 -1.91989 128 128 128
-2.99835 -0.576595 0.670567 128 128 128
-3.28352 0.141313 3.0243 128 128 128
-4.56978 -0.441797 0.804486 128 128 128
-8.49121 1.05384 -3.21047 128 128 128
-0.772826 -0.506366 -1.77849 128 128 128
-4.3661 -0.347555 0.597662 128 128 128
-6.3181 4.41314 2.65065 128 128 128
-6.44274 0.281057 1.57849 128 128 128
-1.49046 -0.249444 -1.12567 128 128 128
-1.34495 -0.980861 -0.177502 128 128 128
-0.272681 0.41714 -2.86756 128 128 128
-0.284758 0.429014 -2.88541 128 128 128
-0.492301 -0.456839 -2.87329 128 128 128
-0.546138 -0.410064 -2.6816 128 128 128
-5.86772 1.73414 1.46849 128 128 128
-11.3342 2.76364 -0.439257 128 128 128
-0.625989 0.252605 -1.63295 128 128 128
-0.550359 0.506727 -1.65187 128 128 128
-0.582484 0.460811 -1.6241 128 128 128
-0.597452 0.429423 -1.628 128 128 128
-0.607503 0.308032 -1.63128 128 128 128
-0.827122 -0.529827 -1.67828 128 128 128
-0.60808 0.474947 -1.6322 128 128 128
-0.839845 -0.430204 -1.66862 128 128 128
-0.59102 0.53038 -1.64163 128 128 128
-0.602694 0.468815 -1.63535 128 128 128
-0.649516 -0.680184 -2.419 128 128 128
-0.826688 -0.548172 -1.771 128 128 128
-0.954545 -1.20574 1.55355 128 128 128
-1.93409 -0.7873 0.255296 128 128 128
-1.82631 -0.832328 -0.263798 128 128 128
-1.81574 -0.81303 -0.292024 128 128 128
-1.82413 -0.8096 -0.300068 128 128 128
-0.916417 -1.18209 1.49475 128 128 128
-0.943301 -1.20909 1.5286 128 128 128
-2.99076 -0.0991419 2.59593 128 128 128
-1.89137 -1.35826 2.25396 128 128 128
-3.16235 -0.0469339 2.85025 128 128 128
-3.53482 -0.893932 2.31093 128 128 128
-3.88734 -0.890658 2.67682 128 128 128
-3.84748 -0.895415 2.6645 128 128 128
-5.24816 3.74533 2.04795 128 128 128
-6.01465 1.58232 1.72301 128 128 128
-6.77389 -0.18388 2.00622 128 128 128
-6.55538 -0.955756 4.15554 128 128 128
-4.74341 1.49586 8.25579 128 128 128
-3.26325 1.46722 10.079 128 128 128
-4.1781 -1.26636 2.91286 128 128 128
-3.84451 -1.32383 2.56043 128 128 128
-3.34663 -0.391929 3.01135 128 128 128
-6.42599 0.594915 1.73035 128 128 128
-6.66609 -0.547661 1.94142 128 128 128
-3.08671 3.45912 8.19119 128 128 128
-3.83557 -1.70226 2.54711 128 128 128
-3.88492 -1.69546 2.59562 128 128 128
-5.38676 -1.13908 1.16387 128 128 128
-7.67517 -0.562747 2.00379 128 128 128
-6.227 -0.558708 1.46107 128 128 128
-3.71228 -1.53037 8.89507 128 128 128
-3.2589 2.91797 8.14985 128 128 128
-4.52765 0.0928854 10.9697 128 128 128
-3.35263 -2.19298 1.36058 128 128 128
-4.67821 -1.90845 0.871759 128 128 128
-5.29618 -1.16357 1.08332 128 128 128
-4.07011 -1.80477 2.69208 128 128 128
-3.59233 -1.73786 2.2508 128 128 128
-3.36238 -0.872431 2.93002 128 128 128
-3.82938 -1.69109 2.53178 128 128 128
-3.91693 -1.68184 2.59157 128 128 128
-4.00041 -2.02439 2.65197 128 128 128
-3.28654 -1.25682 2.66674 128 128 128
-4.05962 -2.02838 2.71368 128 128 128
-3.2658 -1.2629 2.64848 128 128 128
-3.97666 -2.01693 2.61805 128 128 128
-4.05675 -2.03302 2.71068 128 128 128
-3.99122 -1.79024 2.69055 128 128 128
-4.0581 -2.04045 2.71964 128 128 128
-5.59391 -1.49675 1.2796 128 128 128
-3.94119 -1.46322 9.49549 128 128 128
-2.54974 -1.09371 10.4094 128 128 128
-3.10629 3.57165 8.38168 128 128 128
-4.92963 1.28257 10.5414 128 128 128
-4.11287 -1.89162 2.8296 128 128 128
-4.11097 -1.89187 2.83071 128 128 128
-4.07573 -2.20611 2.72695 128 128 128
-5.58303 -1.73632 1.40192 128 128 128
-4.10549 -2.14484 3.64994 128 128 128
-5.69207 -0.83908 2.65741 128 128 128
-6.85957 0.514771 2.04138 128 128 128
-7.7247 -1.1157 2.22399 128 128 128
-7.3303 -1.45785 2.12595 128 128 128
-4.98809 2.18662 9.00744 128 128 128
-5.01271 2.27224 9.1082 128 128 128
-3.9456 1.7897 10.1964 128 128 128
-13.6821 4.57822 13.5675 128 128 128
-25.5761 3.23206 9.00978 128 128 128
-27.0771 3.48546 9.6235 128 128 128
-13.8126 -0.545305 6.54594 128 128 128
-3.71828 0.657511 10.5177 128 128 128
-3.64079 -1.62738 2.97905 128 128 128
-3.8165 -1.65366 3.26614 128 128 128
-3.45386 -1.75743 2.72285 128 128 128
-3.81506 -1.63766 3.32339 128 128 128
-2.66336 -1.16077 10.1305 128 128 128
-2.6407 -1.14886 10.1424 128 128 128
-2.71081 -1.02947 10.7439 128 128 128
-4.56645 2.14566 10.0143 128 128 128
-10.8504 -1.25949 6.37082 128 128 128
-3.94015 1.65906 10.0405 128 128 128
-4.60031 0.952589 9.94555 128 128 128
-4.63672 1.64716 8.03727 128 128 128
-2.22151 -1.03794 3.20827 128 128 128
-2.97863 2.2922 4.14176 128 128 128
-11.6247 6.04553 3.93512 128 128 128
-3.74857 0.726591 10.4997 128 128 128
-1.90907 -0.957457 1.0761 128 128 128
-0.929963 -0.908165 1.63492 128 128 128
-0.105434 0.325786 1.19016 128 128 128
-0.480548 0.561513 0.961385 128 128 128
-1.06947 -1.17567 1.23316 128 128 128
-4.23865 -0.503436 3.03404 128 128 128
-4.55348 1.31137 2.9186 128 128 128
-3.3511 -0.479087 3.0264 128 128 128
-6.37892 2.62999 2.14704 128 128 128
-0.390352 0.67213 0.787444 128 128 128
-0.394035 0.680003 0.806449 128 128 128
-1.65641 -0.537146 2.35209 128 128 128
-2.72726 1.95302 0.115905 128 128 128
-3.44137 -0.504331 -0.0217166 128 128 128
-2.63592 -0.749464 1.11005 128 128 128
-2.11066 -1.04921 3.3664 128 128 128
-2.40629 1.79202 3.20386 128 128 128
-2.65719 0.983336 3.21603 128 128 128
-2.81242 -0.36554 3.02491 128 128 128
-3.64549 -0.577848 2.57471 128 128 128
-3.58423 -0.625269 2.78992 128 128 128
-3.91427 -0.65846 3.60972 128 128 128
-1.63451 -0.989606 0.986461 128 128 128
-1.63569 -1.00891 1.09678 128 128 128
-1.95989 -0.876597 0.982585 128 128 128
-0.888192 -0.732144 1.66222 128 128 128
-1.73562 -0.816319 -1.16764 128 128 128
-2.88444 -0.0464101 -0.447937 128 128 128
-0.472033 0.478416 -1.73311 128 128 128
-0.628176 -0.364841 -2.567 128 128 128
