ply
format ascii 1.0
element vertex 1254
property float x
property float y
property float z
property uchar red
property uchar green
property uchar blue
end_header
1.12544 0.154271 -0.869325 128 128 128
1.09651 0.150113 -0.904616 128 128 128
1.14244 0.0848014 -0.869026 128 128 128
1.15325 0.0869629 -0.878845 128 128 128
1.16044 0.0830465 -0.853592 128 128 128
1.14274 0.0837039 -0.869367 128 128 128
1.14786 0.0808039 -0.867964 128 128 128
1.15641 0.0811835 -0.853307 128 128 128
1.16621 0.0812392 -0.858754 128 128 128
1.16565 0.0822594 -0.863218 128 128 128
1.15144 0.0802115 -0.854978 128 128 128
1.16432 0.0809786 -0.863342 128 128 128
1.09905 0.130157 -1.05733 128 128 128
1.09512 0.130159 -1.05511 128 128 128
1.16074 0.071414 -0.868084 128 128 128
1.01912 0.229813 -1.23173 128 128 128
1.10456 0.0742583 -1.05098 128 128 128
1.10345 0.0818145 -1.05963 128 128 128
1.10018 0.0810995 -1.05409 128 128 128
1.11654 0.0743861 -1.06194 128 128 128
1.11762 0.0725411 -1.0571 128 128 128
1.11985 0.0698623 -1.05675 128 128 128
1.11546 0.0710239 -1.05625 128 128 128
1.12309 0.0715867 -1.05922 128 128 128
1.14454 0.0323957 -1.05668 128 128 128
1.18861 0.0464564 -1.07576 128 128 128
1.17278 0.206419 -1.23216 128 128 128
1.03115 0.270696 -1.82346 128 128 128
1.00361 -0.277079 -1.70405 128 128 128
1.00741 -0.280006 -1.71104 128 128 128
1.01503 0.258391 -1.78201 128 128 128
1.02408 -0.283465 -1.75059 128 128 128
1.00564 -0.0574309 -1.7959 128 128 128
1.01661 -0.0554102 -1.8149 128 128 128
1.00792 -0.187858 -1.7222 128 128 128
1.05436 0.265306 -1.84166 128 128 128
1.01886 -0.186965 -1.738 128 128 128
1.05782 0.179406 -1.83791 128 128 128
1.03692 -0.284245 -1.74409 128 128 128
1.04855 0.174859 -1.82224 128 128 128
1.05461 0.174987 -1.83405 128 128 128
1.03866 -0.287848 -1.74731 128 128 128
1.07239 0.181653 -1.86524 128 128 128
1.04363 -0.290623 -1.75248 128 128 128
1.04453 -0.28875 -1.75477 128 128 128
1.06964 -0.29139 -1.7839 128 128 128
1.04912 -0.189572 -1.78387 128 128 128
1.06617 0.177336 -1.85005 128 128 128
1.27324 -0.00329936 -1.47753 128 128 128
1.27157 -0.00416438 -1.477 128 128 128
1.27853 0.0838436 -1.49323 128 128 128
1.30025 0.0928425 -1.44322 128 128 128
1.28117 0.0830572 -1.49137 128 128 128
1.27017 -0.00562091 -1.47881 128 128 128
1.28408 0.235071 -1.45786 128 128 128
1.26867 -0.011833 -1.48485 128 128 128
1.29959 -0.0163918 -1.52259 128 128 128
1.26429 0.0879438 -1.47568 128 128 128
1.27925 0.0845933 -1.49629 128 128 128
1.27039 0.0883676 -1.49367 128 128 128
-1.00527 0.0904671 -0.849815 128 128 128
-1.01219 0.0903123 -0.853337 128 128 128
-1.02044 0.0845068 -0.913164 128 128 128
-1.29331 0.561741 -0.0830389 128 128 128
-1.27755 0.560622 -0.0910453 128 128 128
-1.24748 0.63677 -0.0858163 128 128 128
-1.25341 0.638919 -0.0823278 128 128 128
-1.28263 0.557923 -0.0882254 128 128 128
-1.27965 0.56039 -0.0890107 128 128 128
-1.29734 0.541845 -0.0424435 128 128 128
-1.28668 0.538527 -0.0423034 128 128 128
-0.923491 0.0853181 -0.93872 128 128 128
-1.67317 -1.25561 3.06796 128 128 128
-1.90202 -1.45242 3.48523 128 128 128
-3.1081 -1.4593 2.19333 128 128 128
-2.71209 1.87765 2.49454 128 128 128
-1.83363 0.774917 0.437707 128 128 128
-1.86713 0.727058 0.46001 128 128 128
-1.91194 0.766719 0.518577 128 128 128
-2.68606 -0.490633 0.638567 128 128 128
-2.99038 -0.554443 0.721442 128 128 128
-2.75568 -0.507122 0.662255 128 128 128
-2.83046 -0.477807 0.615828 128 128 128
-3.31739 -0.343142 1.1167 128 128 128
-3.4749 -1.45741 1.26371 128 128 128
-3.25958 -0.35056 1.11544 128 128 128
-3.32393 -0.372732 1.14007 128 128 128
-3.08374 -0.335755 1.05191 128 128 128
-3.24027 -2.23333 -2.70496 128 128 128
-3.5163 -1.26891 1.21767 128 128 128
-3.64648 -0.0645634 1.25247 128 128 128
-3.78559 -0.0722406 1.31631 128 128 128
0.716824 0.270966 -1.07053 128 128 128
3.40507 -1.70344 1.03064 128 128 128
0.48847 -0.903303 3.12567 128 128 128
3.11979 -1.60106 2.03673 128 128 128
0.316494 -0.404417 3.91013 128 128 128
2.51369 -1.38079 1.59625 128 128 128
2.94036 -1.54458 1.92217 128 128 128
0.645897 -0.84297 3.20016 128 128 128
2.70314 -1.36415 1.78426 128 128 128
0.400664 -0.769176 3.55836 128 128 128
0.14354 -0.552278 3.9452 128 128 128
1.95299 1.10508 2.95119 128 128 128
0.804214 -0.699979 3.66176 128 128 128
0.125224 -0.590407 4.0543 128 128 128
1.31174 -0.905982 3.51242 128 128 128
0.222817 -0.559038 4.19528 128 128 128
3.0886 0.637236 2.66826 128 128 128
3.26013 -1.35555 2.48299 128 128 128
3.29646 0.749329 3.64876 128 128 128
2.24544 0.299403 3.75151 128 128 128
3.94214 -1.49463 1.89292 128 128 128
3.71921 0.257078 2.89963 128 128 128
4.01012 -1.31104 2.20471 128 128 128
3.34918 0.864539 4.0519 128 128 128
1.39531 0.546216 5.70898 128 128 128
1.80534 0.109529 -0.75602 128 128 128
1.78255 0.103417 -0.749884 128 128 128
1.79487 0.104563 -0.754412 128 128 128
1.75132 0.236687 -0.616315 128 128 128
1.81562 0.11288 -0.761114 128 128 128
1.74755 0.236742 -0.620774 128 128 128
1.78015 0.193424 -0.761989 128 128 128
1.78395 0.199035 -0.764796 128 128 128
1.83389 -0.00137669 -0.719143 128 128 128
1.8525 -0.0337719 -0.703239 128 128 128
1.84945 -0.0299153 -0.715215 128 128 128
1.13033 0.186486 -0.716786 128 128 128
1.57061 -0.0763665 -1.02935 128 128 128
1.56796 0.0581799 -1.10378 128 128 128
1.57895 -0.164144 -1.02535 128 128 128
1.58759 -0.163372 -1.0289 128 128 128
1.57592 -0.0797092 -1.03687 128 128 128
1.56754 -0.172546 -1.01311 128 128 128
1.57396 -0.079768 -1.03038 128 128 128
1.61521 -0.178032 -1.04255 128 128 128
1.84181 0.254141 -0.420103 128 128 128
1.77406 -0.828609 -0.548634 128 128 128
1.83108 -0.853022 -0.5868 128 128 128
1.84158 0.192022 -0.699393 128 128 128
1.85074 0.639015 -0.626345 128 128 128
1.8284 -0.88796 -0.564222 128 128 128
1.90599 0.662867 -0.631015 128 128 128
1.8792 0.652954 -0.628102 128 128 128
1.84077 -0.902969 -0.561224 128 128 128
1.99318 0.214856 -0.483985 128 128 128
1.85613 0.191195 -0.71541 128 128 128
1.13832 0.103188 -0.718659 128 128 128
1.16043 0.099973 -0.732894 128 128 128
1.15877 0.102613 -0.72868 128 128 128
1.164 0.112605 -0.723171 128 128 128
1.16003 0.101644 -0.731574 128 128 128
1.17164 0.103918 -0.700516 128 128 128
1.16213 0.104296 -0.717903 128 128 128
1.16888 0.104752 -0.721223 128 128 128
1.16954 0.0944318 -0.718465 128 128 128
1.17397 0.103476 -0.725424 128 128 128
1.16894 0.097977 -0.717539 128 128 128
0.979108 0.226666 -1.21828 128 128 128
1.11345 0.164418 -0.874582 128 128 128
1.06608 0.263187 -0.73491 128 128 128
2.58957 0.420965 0.412395 128 128 128
2.58803 0.0796956 -0.601045 128 128 128
2.67085 0.0777387 -0.579214 128 128 128
2.60142 0.0771538 -0.601072 128 128 128
2.62008 0.0808303 -0.214381 128 128 128
2.64673 -0.45277 -0.59202 128 128 128
2.60094 -0.713172 -0.566606 128 128 128
2.61663 0.0622937 -0.599151 128 128 128
2.69571 -0.738537 -0.578188 128 128 128
2.67993 -0.449306 -0.607196 128 128 128
2.56642 -0.440227 -0.578978 128 128 128
2.58552 -0.699272 -0.542765 128 128 128
2.6608 -0.439496 -0.607417 128 128 128
2.52477 -0.40954 -0.611593 128 128 128
2.73913 -0.438807 -0.621285 128 128 128
2.63102 -0.420349 -0.598062 128 128 128
2.59687 -0.412457 -0.615896 128 128 128
2.62978 -0.418932 -0.619961 128 128 128
2.64102 -0.420815 -0.618907 128 128 128
2.63291 -0.411831 -0.582552 128 128 128
3.34534 1.45835 1.36827 128 128 128
3.11514 -0.295358 0.358125 128 128 128
3.07817 -0.167444 0.340434 128 128 128
2.75156 -1.34635 1.68216 128 128 128
3.32081 0.0789821 0.310758 128 128 128
3.06648 0.0287268 0.173687 128 128 128
3.10948 0.0659567 0.269619 128 128 128
2.99781 0.0316107 0.15761 128 128 128
1.05393 0.319101 -0.726734 128 128 128
0.937199 0.290143 -0.7816 128 128 128
1.1116 0.182649 -0.738117 128 128 128
1.10859 0.17891 -0.738301 128 128 128
1.10861 0.177819 -0.738058 128 128 128
1.11162 0.178912 -0.738842 128 128 128
1.10902 0.176592 -0.739774 128 128 128
1.13303 0.144693 -0.71775 128 128 128
1.0574 0.321673 -0.727716 128 128 128
1.07104 0.267036 -0.740516 128 128 128
1.96371 0.22291 -0.704838 128 128 128
1.91065 0.26845 0.0403626 128 128 128
1.86544 0.196934 -0.712911 128 128 128
1.93554 0.702283 -0.53478 128 128 128
1.99071 0.268614 -0.73692 128 128 128
1.90117 0.21484 -0.715611 128 128 128
1.83237 0.191517 -0.703221 128 128 128
1.92131 0.207081 -0.732348 128 128 128
1.96409 0.211848 -0.748936 128 128 128
1.76209 -0.808855 -0.597653 128 128 128
1.97412 0.721601 -0.536305 128 128 128
2.01638 0.310698 -0.384832 128 128 128
1.99588 0.754896 -0.523198 128 128 128
1.96068 0.114785 -0.625429 128 128 128
1.34775 0.634849 0.740307 128 128 128
1.32692 0.618208 0.711739 128 128 128
2.58927 0.0223106 -0.178665 128 128 128
2.61538 0.0089489 -0.184356 128 128 128
2.57085 0.118257 -0.223159 128 128 128
2.63527 0.101769 -0.222536 128 128 128
2.53267 0.0451556 -0.209588 128 128 128
2.59176 0.125547 -0.222742 128 128 128
2.58767 -0.386841 -0.448521 128 128 128
2.57981 0.0528558 -0.213188 128 128 128
2.58344 0.0548796 -0.219001 128 128 128
2.70592 -0.403954 -0.461667 128 128 128
1.72253 0.684077 1.2985 128 128 128
2.38974 0.0925765 0.226724 128 128 128
1.82788 0.727585 1.43412 128 128 128
2.52759 -1.7233 0.041094 128 128 128
2.57479 -1.76175 0.0533457 128 128 128
2.54763 0.401827 0.427566 128 128 128
2.52783 0.421704 0.391841 128 128 128
2.54074 0.42645 0.389997 128 128 128
2.47963 0.419195 0.367541 128 128 128
2.56735 0.406883 0.433236 128 128 128
2.54657 0.33025 0.378585 128 128 128
2.55007 0.4053 0.426193 128 128 128
1.9645 0.743334 1.63515 128 128 128
1.7458 -1.47091 1.90641 128 128 128
2.6851 -1.54557 0.465113 128 128 128
2.6239 -1.50024 0.431701 128 128 128
2.82494 -1.63558 0.55012 128 128 128
2.72464 0.201469 0.48611 128 128 128
2.22412 -1.59927 0.91506 128 128 128
2.38281 -1.52233 1.31457 128 128 128
2.3759 -1.72225 1.02807 128 128 128
2.92685 -2.06333 0.0160661 128 128 128
2.23813 -1.43508 1.23138 128 128 128
3.13754 -0.351702 0.350124 128 128 128
3.13773 -0.349451 0.335263 128 128 128
2.81503 0.212842 0.520807 128 128 128
2.28127 -1.63419 1.10198 128 128 128
3.01834 -0.334694 0.325695 128 128 128
3.15 -0.352279 0.343168 128 128 128
3.13406 -0.298563 0.370188 128 128 128
3.13521 -0.182491 0.346661 128 128 128
1.15072 0.13754 -0.725387 128 128 128
1.75403 0.0636734 -0.665451 128 128 128
1.83967 -0.0144774 -0.728288 128 128 128
1.79617 0.198477 -0.769518 128 128 128
1.85113 -0.0241298 -0.723513 128 128 128
1.85081 -0.0274929 -0.724081 128 128 128
1.77516 -0.827039 -0.554621 128 128 128
1.7769 -0.826976 -0.553574 128 128 128
1.78373 -0.834087 -0.55335 128 128 128
1.75944 -0.818952 -0.556827 128 128 128
1.31613 0.61454 0.709527 128 128 128
1.30796 0.605766 0.683669 128 128 128
2.04341 0.126805 -0.597171 128 128 128
2.07202 0.131734 -0.604128 128 128 128
1.99071 0.286383 -0.436524 128 128 128
2.01853 0.286361 -0.400781 128 128 128
2.05682 0.14839 -0.480069 128 128 128
1.99909 0.289196 -0.404415 128 128 128
2.02575 0.291395 -0.408133 128 128 128
1.41618 0.6275 0.842754 128 128 128
1.42833 0.63209 0.874331 128 128 128
1.42196 0.629597 0.84423 128 128 128
1.19479 0.579474 0.51914 128 128 128
1.18567 0.575514 0.517711 128 128 128
1.10534 1.62395 7.50629 128 128 128
-0.79403 2.17111 7.78883 128 128 128
-0.865853 2.23567 8.06998 128 128 128
-4.42902 -1.05988 2.80619 128 128 128
-4.13878 -1.49533 2.8002 128 128 128
-4.59336 -1.02461 2.88352 128 128 128
-4.2917 -1.02431 2.70903 128 128 128
-5.83203 -0.84313 3.00974 128 128 128
-5.41001 -1.41542 3.54531 128 128 128
-6.77124 -1.01055 3.53266 128 128 128
-5.28154 0.748786 5.80944 128 128 128
-6.28204 -0.829782 3.36609 128 128 128
-6.36332 0.679872 4.63827 128 128 128
-7.19088 -0.738609 4.10273 128 128 128
-7.55423 0.642722 4.41038 128 128 128
-0.425522 -0.0995274 -1.36222 128 128 128
-0.427784 -0.101589 -1.36622 128 128 128
-1.05013 0.0885022 -0.947915 128 128 128
0.105204 -0.446958 -1.70953 128 128 128
-0.411611 -0.881257 -1.26951 128 128 128
-0.421228 -0.882608 -1.26235 128 128 128
-0.465033 -0.885104 -1.22888 128 128 128
-0.462202 -0.880965 -1.23509 128 128 128
-0.459139 -0.875181 -1.22613 128 128 128
-3.00703 -2.14131 -2.49107 128 128 128
-2.24964 -1.97594 -3.80603 128 128 128
-4.49764 -1.55868 -1.90287 128 128 128
-4.92177 -1.69859 -2.05179 128 128 128
-5.0092 -1.7304 -2.08076 128 128 128
-3.74227 -2.19635 -3.5116 128 128 128
-5.07157 -2.28006 -3.12334 128 128 128
-6.9787 -2.17501 -3.8503 128 128 128
-0.376408 0.207569 -1.32561 128 128 128
1.18969 0.103029 -0.697855 128 128 128
1.14136 0.129545 -0.719675 128 128 128
1.14931 0.127615 -0.733894 128 128 128
1.13758 0.112622 -0.719509 128 128 128
1.16303 0.0959642 -0.722436 128 128 128
1.16138 0.100022 -0.734075 128 128 128
1.14917 0.101267 -0.720101 128 128 128
1.84874 0.204771 -0.781757 128 128 128
1.86421 0.0545168 -0.743382 128 128 128
1.79755 -0.870806 -0.554229 128 128 128
2.04455 0.131254 -0.651711 128 128 128
1.94253 0.116267 -0.625821 128 128 128
3.07079 -1.18225 2.25711 128 128 128
2.87946 -1.12115 2.20994 128 128 128
2.89605 -1.12686 2.22321 128 128 128
3.28343 0.246006 0.694054 128 128 128
3.91822 -1.39515 2.81747 128 128 128
3.70382 -1.31105 2.57807 128 128 128
3.28632 0.613385 3.36618 128 128 128
5.00547 -1.46182 3.08625 128 128 128
3.39578 1.17179 1.74704 128 128 128
2.17233 1.38951 3.45729 128 128 128
1.44206 -0.926 3.75781 128 128 128
3.57808 0.107534 1.32315 128 128 128
3.49503 0.104992 1.27275 128 128 128
2.38797 1.19609 3.42629 128 128 128
2.30802 1.13793 3.27598 128 128 128
2.3863 1.33545 3.19119 128 128 128
2.33955 1.18256 3.34963 128 128 128
1.41494 -0.884304 3.62383 128 128 128
3.68875 0.108531 1.36723 128 128 128
2.37899 1.30963 3.1178 128 128 128
1.94904 1.0608 3.67139 128 128 128
1.7703 -0.962787 3.90132 128 128 128
3.64051 0.382929 1.56629 128 128 128
2.28325 0.417071 4.51575 128 128 128
1.68155 -0.872822 3.58318 128 128 128
1.7878 -0.831427 3.66566 128 128 128
1.60928 -0.835935 4.40927 128 128 128
1.4742 -0.523451 4.18442 128 128 128
1.46214 -0.506006 4.09946 128 128 128
1.51002 -0.769819 4.04248 128 128 128
1.5449 -0.793883 4.16082 128 128 128
1.51058 -0.534911 4.30507 128 128 128
1.97924 0.872226 4.50044 128 128 128
2.40782 0.945533 3.55484 128 128 128
1.86632 0.827205 4.24322 128 128 128
3.81652 -0.1706 1.43852 128 128 128
2.61088 1.05063 3.94427 128 128 128
2.45058 0.794131 3.28514 128 128 128
1.73418 -0.827403 3.97074 128 128 128
2.77813 -1.11808 3.11359 128 128 128
2.82383 0.918551 3.92455 128 128 128
2.69311 -1.08081 3.00569 128 128 128
2.75952 -1.11111 3.09123 128 128 128
2.63128 0.853358 3.59643 128 128 128
3.22356 0.782445 3.22205 128 128 128
2.72565 -1.01395 3.10285 128 128 128
3.14566 0.81208 3.70187 128 128 128
2.39661 0.768447 3.58723 128 128 128
1.6974 -0.403441 4.25043 128 128 128
3.4155 0.775785 3.48257 128 128 128
3.23226 0.748577 3.5207 128 128 128
3.02273 -0.963612 2.38813 128 128 128
1.87475 -0.471414 4.90457 128 128 128
3.48073 0.7116 2.82721 128 128 128
3.63454 0.512584 2.98541 128 128 128
2.59414 0.360359 4.25969 128 128 128
3.81592 0.6483 3.16636 128 128 128
3.77699 0.525917 3.13013 128 128 128
3.72376 0.967129 3.06354 128 128 128
3.61169 0.798342 2.94389 128 128 128
3.42054 0.633891 3.59609 128 128 128
3.93893 0.815725 3.27711 128 128 128
3.33841 0.867482 2.69807 128 128 128
3.19869 0.58283 3.29349 128 128 128
1.75895 -0.427753 4.5004 128 128 128
2.00915 0.188132 4.78605 128 128 128
3.67431 -1.2903 2.59534 128 128 128
4.44042 0.853093 2.90274 128 128 128
3.13607 0.307507 3.87055 128 128 128
3.96896 0.7747 2.50662 128 128 128
3.21107 0.309662 4.01217 128 128 128
3.70592 -1.22866 3.07149 128 128 128
1.90558 0.773119 1.53254 128 128 128
1.84333 0.762907 1.45538 128 128 128
2.4492 0.660738 2.28905 128 128 128
2.42358 0.662987 2.3089 128 128 128
1.72599 0.694853 1.65657 128 128 128
2.29412 0.802345 2.28974 128 128 128
1.23863 -1.3383 1.52306 128 128 128
1.24891 -1.35396 1.53476 128 128 128
0.782346 -1.1678 2.54274 128 128 128
0.795068 -1.20811 2.64842 128 128 128
0.78976 -1.21552 2.6383 128 128 128
0.922986 -1.08992 2.58765 128 128 128
2.19799 -1.58179 0.887421 128 128 128
2.12904 0.750284 1.89232 128 128 128
1.66721 -1.35613 1.74999 128 128 128
1.65193 -1.34232 1.72859 128 128 128
0.815355 -1.16794 3.06857 128 128 128
1.57019 -1.11952 1.8871 128 128 128
1.91525 -1.28735 1.90352 128 128 128
0.903924 -1.05276 3.05584 128 128 128
1.87777 -1.28471 1.86998 128 128 128
3.22251 0.205385 0.648987 128 128 128
3.18996 0.14024 0.624333 128 128 128
2.35442 -1.45615 1.1674 128 128 128
3.30157 -0.22144 0.781107 128 128 128
3.36491 -0.222143 0.808803 128 128 128
3.41366 -0.231354 0.816716 128 128 128
3.52997 1.21858 1.81786 128 128 128
2.67519 -1.47016 1.60982 128 128 128
2.35615 0.0112393 -0.17883 128 128 128
2.43096 0.664965 2.30294 128 128 128
1.82857 0.764424 1.47115 128 128 128
1.6586 0.76961 1.4587 128 128 128
3.73622 0.226116 -0.515467 128 128 128
2.48613 -1.67701 0.013655 128 128 128
2.31978 -1.74599 0.472469 128 128 128
2.83374 0.223917 0.51603 128 128 128
2.5757 -1.57532 0.584507 128 128 128
3.16006 0.105554 0.459098 128 128 128
2.73034 -0.750335 -0.582113 128 128 128
2.75817 -0.741268 -0.507206 128 128 128
2.8831 -1.66503 0.524756 128 128 128
3.29046 -0.19217 0.379445 128 128 128
4.03111 0.38949 1.38155 128 128 128
3.73657 0.346793 0.944578 128 128 128
3.87786 0.0507488 0.902142 128 128 128
4.16944 0.406749 1.45133 128 128 128
4.29829 -2.61162 0.837588 128 128 128
4.73451 -2.46694 1.53932 128 128 128
1.13121 0.207102 -0.838637 128 128 128
1.12218 0.185769 -0.862365 128 128 128
1.15539 0.21028 -0.850536 128 128 128
1.11178 0.159061 -0.908565 128 128 128
1.15383 0.0801526 -0.860756 128 128 128
1.14437 0.0394065 -1.04205 128 128 128
1.1569 0.0385176 -1.05153 128 128 128
1.78057 0.220035 -0.655691 128 128 128
1.82605 -0.0128027 -0.72465 128 128 128
1.83265 0.00905389 -0.72851 128 128 128
1.83558 0.01244 -0.728091 128 128 128
1.83138 0.00909863 -0.729767 128 128 128
1.8337 -0.014253 -0.719813 128 128 128
1.90788 0.191421 -0.731556 128 128 128
1.604 -0.164892 -1.03715 128 128 128
1.55084 -0.178224 -1.13605 128 128 128
1.55067 -0.16651 -1.14097 128 128 128
1.54766 -0.174925 -1.13476 128 128 128
2.08811 0.137896 -0.609229 128 128 128
2.04743 0.126199 -0.442067 128 128 128
1.98443 0.21101 -0.75742 128 128 128
2.0384 0.292829 -0.436973 128 128 128
2.04027 0.29221 -0.432034 128 128 128
2.06306 0.317098 -0.386501 128 128 128
1.61543 -0.959 -1.01818 128 128 128
1.86843 0.00278802 -0.687265 128 128 128
1.73226 -1.02278 -1.05046 128 128 128
2.37454 0.148042 -0.392386 128 128 128
2.59224 0.354574 0.383158 128 128 128
1.13587 0.202399 -0.726722 128 128 128
-0.532131 -0.0169134 -1.21538 128 128 128
-0.568311 -0.0213151 -1.21821 128 128 128
-0.586748 -0.0193365 -1.23631 128 128 128
-0.44395 -0.0842982 -1.25723 128 128 128
-0.457108 -0.0869395 -1.27299 128 128 128
-0.265573 0.178296 -1.39223 128 128 128
-0.456061 -0.0292039 -1.29996 128 128 128
-0.444358 -0.0331543 -1.31349 128 128 128
-0.454132 -0.0348309 -1.32503 128 128 128
-0.467326 -0.131252 -1.30076 128 128 128
-0.460375 -0.109445 -1.30664 128 128 128
0.878261 -0.815893 -1.63159 128 128 128
0.0622686 -0.399058 -1.67809 128 128 128
0.0640586 -0.39552 -1.65998 128 128 128
0.205994 -0.355203 -1.77346 128 128 128
0.0826589 -0.487554 -1.7034 128 128 128
0.201285 -0.353937 -1.7638 128 128 128
0.676342 0.0769709 -2.13294 128 128 128
0.676623 0.076248 -2.11711 128 128 128
0.687019 0.0783435 -2.15113 128 128 128
0.668488 -0.0238486 -2.10854 128 128 128
0.685079 -0.0270307 -2.15093 128 128 128
0.674014 -0.0209863 -2.12611 128 128 128
0.661782 -0.00324829 -2.12526 128 128 128
0.662696 0.00246991 -2.11387 128 128 128
0.673726 -0.848785 -1.90311 128 128 128
0.67985 -0.8535 -1.91043 128 128 128
-7.08484 -2.81654 -5.16466 128 128 128
-3.06587 -1.31889 1.31384 128 128 128
-3.49514 -1.11717 1.21504 128 128 128
-4.3144 -1.06654 1.96942 128 128 128
-4.73737 -0.888529 2.20397 128 128 128
-3.61085 -1.25955 -1.54228 128 128 128
-4.73843 -2.3685 -2.27997 128 128 128
-4.27939 -1.5301 -1.72124 128 128 128
-0.383833 -0.00420283 -1.3682 128 128 128
-0.566996 0.00132543 -1.24784 128 128 128
-0.193232 0.13567 -1.48983 128 128 128
-0.352307 0.190061 -1.4165 128 128 128
-0.193214 0.134437 -1.48843 128 128 128
-0.349934 0.165701 -1.41854 128 128 128
-0.280664 0.18103 -1.4203 128 128 128
-0.279554 0.180602 -1.41913 128 128 128
-0.940516 0.0743735 -0.969561 128 128 128
-0.924988 0.0703909 -0.957606 128 128 128
-0.278515 0.186967 -1.47468 128 128 128
-0.343811 0.165457 -1.41323 128 128 128
-0.221181 0.174696 -1.52057 128 128 128
-0.980902 0.08104 -0.965478 128 128 128
-0.903863 0.0717867 -0.947704 128 128 128
1.54084 -0.890731 -0.973053 128 128 128
1.53084 -0.854976 -0.916311 128 128 128
-0.472479 -0.117873 -1.24593 128 128 128
-0.425221 -0.00926303 -1.32287 128 128 128
-0.284636 0.18682 -1.4289 128 128 128
0.0501606 0.410248 -1.78396 128 128 128
0.962848 0.257735 -1.78708 128 128 128
0.959223 0.262404 -1.79812 128 128 128
0.965127 0.348141 -1.81567 128 128 128
0.983672 0.356664 -1.8525 128 128 128
0.974924 0.360083 -1.83091 128 128 128
0.967323 0.261734 -1.81225 128 128 128
0.970297 0.351748 -1.8241 128 128 128
0.972582 0.259922 -1.81788 128 128 128
0.971235 0.355695 -1.82782 128 128 128
0.9696 0.356316 -1.82497 128 128 128
0.971496 0.258328 -1.81554 128 128 128
0.969379 0.258653 -1.81696 128 128 128
0.97448 0.25831 -1.82906 128 128 128
0.979402 0.348885 -1.84389 128 128 128
0.978601 -0.116712 -1.7853 128 128 128
0.972313 -0.114984 -1.78027 128 128 128
0.974547 -0.118165 -1.78229 128 128 128
0.977413 -0.206778 -1.78653 128 128 128
0.973707 -0.106847 -1.7794 128 128 128
0.984418 -0.204732 -1.77752 128 128 128
0.977561 -0.109094 -1.78951 128 128 128
0.971033 -0.207366 -1.75607 128 128 128
0.973455 -0.207052 -1.76562 128 128 128
0.983595 -0.206252 -1.78747 128 128 128
0.974408 -0.209423 -1.77709 128 128 128
0.980442 -0.203813 -1.80055 128 128 128
0.994943 -0.131068 -1.81488 128 128 128
0.908227 0.349203 -1.8952 128 128 128
0.906322 0.333578 -1.89492 128 128 128
0.917254 0.347877 -1.9147 128 128 128
0.907191 0.251974 -1.888 128 128 128
0.912682 0.349816 -1.91161 128 128 128
0.906086 0.254307 -1.8961 128 128 128
0.909076 0.35049 -1.90353 128 128 128
0.905432 0.252033 -1.8896 128 128 128
0.901183 0.250051 -1.87949 128 128 128
0.9056 0.342109 -1.90313 128 128 128
0.917994 0.259425 -1.92499 128 128 128
0.884608 -0.826076 -1.65365 128 128 128
0.925687 0.0181415 -1.82653 128 128 128
0.132044 -0.361051 -1.7724 128 128 128
0.920149 0.259161 -1.90411 128 128 128
0.926155 0.340805 -1.93207 128 128 128
0.914493 0.25802 -1.9163 128 128 128
0.916918 0.337305 -1.9371 128 128 128
0.134518 -0.67951 -1.77712 128 128 128
0.913953 -0.206263 -1.84773 128 128 128
0.920413 -0.133844 -1.87868 128 128 128
0.915787 -0.210358 -1.86136 128 128 128
0.913158 -0.115995 -1.86613 128 128 128
0.910817 -0.135824 -1.85963 128 128 128
0.916679 -0.213991 -1.86306 128 128 128
0.910231 -0.120387 -1.86804 128 128 128
0.915069 -0.115343 -1.87083 128 128 128
0.905403 -0.124474 -1.85405 128 128 128
0.916579 -0.21734 -1.86418 128 128 128
0.916692 -0.128734 -1.8711 128 128 128
0.917518 -0.217563 -1.88184 128 128 128
0.908396 -0.21549 -1.85452 128 128 128
0.914796 -0.216615 -1.85979 128 128 128
0.91963 -0.120822 -1.88609 128 128 128
0.164133 -0.396762 -1.84087 128 128 128
0.211807 -0.666675 -1.82873 128 128 128
0.211668 -0.659494 -1.81396 128 128 128
0.710314 -0.844859 -1.84522 128 128 128
0.710529 -0.84982 -1.85593 128 128 128
0.677861 0.0799066 -2.18163 128 128 128
0.676818 0.0760964 -2.18029 128 128 128
0.684213 0.0774839 -2.20345 128 128 128
0.671714 0.0726992 -2.12377 128 128 128
0.676431 0.0500352 -2.1958 128 128 128
-1.31329 -0.00937345 -0.707054 128 128 128
-1.32349 -0.724615 -0.568178 128 128 128
-1.65251 -0.343517 -0.347135 128 128 128
-2.14901 -1.46359 0.568388 128 128 128
-2.20138 -1.51496 0.641049 128 128 128
-2.33002 -1.34796 1.38119 128 128 128
-2.46119 -0.437379 0.617107 128 128 128
-2.32661 -1.35366 1.37858 128 128 128
-2.47656 -1.57701 0.566277 128 128 128
-2.99264 -0.427698 0.96829 128 128 128
-2.93665 -0.542042 0.710825 128 128 128
2.04273 0.789046 1.75668 128 128 128
2.05684 0.798745 1.77057 128 128 128
1.96903 0.787794 1.66199 128 128 128
2.3541 0.714169 2.53177 128 128 128
3.49702 1.52561 1.53587 128 128 128
1.38688 1.96983 3.22827 128 128 128
2.36398 0.680991 2.47454 128 128 128
2.3626 0.677353 2.47816 128 128 128
2.4838 0.884608 2.34022 128 128 128
2.4615 0.887232 2.35832 128 128 128
2.22482 0.838304 2.55894 128 128 128
2.38833 0.60573 2.52301 128 128 128
2.39956 0.798136 2.63951 128 128 128
3.12871 1.06224 2.4439 128 128 128
2.94376 1.15837 2.65502 128 128 128
2.38654 1.30481 3.17433 128 128 128
1.98768 1.51851 3.90302 128 128 128
1.98797 1.52655 3.91574 128 128 128
2.48691 1.37963 3.68895 128 128 128
2.15919 1.17913 3.99491 128 128 128
2.48986 1.45504 3.68276 128 128 128
2.49721 1.46122 3.6819 128 128 128
4.51266 1.18057 2.66729 128 128 128
3.50939 0.780411 3.54459 128 128 128
3.50869 0.845191 3.53067 128 128 128
3.47915 0.748584 3.57716 128 128 128
3.24448 0.721437 3.76641 128 128 128
3.56137 0.859042 3.48684 128 128 128
2.02035 0.0857893 4.87537 128 128 128
3.47865 0.743176 3.58442 128 128 128
3.41956 0.797785 3.62096 128 128 128
3.466 0.669711 3.62012 128 128 128
2.00165 0.165115 4.88218 128 128 128
3.47233 0.762231 3.59506 128 128 128
1.95611 0.958998 4.72918 128 128 128
4.34475 1.21276 2.80983 128 128 128
3.25255 0.720571 3.77875 128 128 128
3.26232 0.832595 3.74825 128 128 128
2.01866 0.810132 4.72567 128 128 128
4.51581 1.24001 2.68091 128 128 128
4.34355 1.08323 2.85287 128 128 128
3.5783 0.9291 3.49001 128 128 128
3.2655 0.832168 3.75697 128 128 128
3.56449 0.735407 3.54748 128 128 128
3.25969 0.717797 3.79008 128 128 128
3.21845 0.832309 3.79528 128 128 128
1.96629 0.288716 4.90087 128 128 128
2.0176 0.817068 4.73761 128 128 128
4.37465 1.1964 2.81375 128 128 128
4.61229 1.0149 2.6745 128 128 128
3.58408 0.9242 3.49697 128 128 128
4.41465 1.38248 2.74386 128 128 128
4.51596 1.2834 2.68912 128 128 128
4.5751 1.13639 2.68041 128 128 128
2.85949 0.941032 4.04349 128 128 128
4.62152 1.01166 2.67525 128 128 128
4.55284 1.18633 2.68861 128 128 128
2.84487 0.961635 4.075 128 128 128
4.34347 1.23855 2.84329 128 128 128
4.53286 1.26407 2.68993 128 128 128
2.86462 0.945978 4.05685 128 128 128
2.37963 1.63833 4.0119 128 128 128
3.81777 0.522758 3.16307 128 128 128
2.40141 2.00428 3.91242 128 128 128
2.13282 1.25914 4.30479 128 128 128
3.83238 0.527315 3.1661 128 128 128
2.3847 1.63858 4.0276 128 128 128
3.85513 0.682979 3.11972 128 128 128
3.85176 0.685581 3.12263 128 128 128
3.86009 0.680957 3.12199 128 128 128
3.23078 0.652109 3.62288 128 128 128
3.82636 0.601668 3.1727 128 128 128
3.23482 0.653961 3.62295 128 128 128
3.82624 0.56127 3.18587 128 128 128
2.00757 1.21357 4.44813 128 128 128
3.24218 0.795741 3.59072 128 128 128
4.58373 1.46003 2.38751 128 128 128
3.83432 0.814339 3.12619 128 128 128
3.24029 0.672007 3.62355 128 128 128
3.8208 0.645651 3.16414 128 128 128
4.58893 1.46395 2.38452 128 128 128
3.83061 0.806303 3.12709 128 128 128
3.83683 0.791042 3.13606 128 128 128
3.25988 0.790832 3.58643 128 128 128
3.18244 0.653456 3.55867 128 128 128
3.84149 0.824827 3.12646 128 128 128
3.84202 0.820542 3.13004 128 128 128
3.83164 0.727008 3.16058 128 128 128
3.25357 0.792586 3.59706 128 128 128
3.23569 0.661229 3.64322 128 128 128
3.83645 0.851151 3.12192 128 128 128
2.3023 1.53977 4.16086 128 128 128
3.42208 0.993813 3.42058 128 128 128
4.60556 1.47115 2.38832 128 128 128
3.83207 0.806529 3.13207 128 128 128
3.83732 0.856102 3.13719 128 128 128
3.15352 0.889421 3.66281 128 128 128
3.26297 0.791618 3.60116 128 128 128
3.86742 0.744907 3.2231 128 128 128
3.22668 0.956668 3.59402 128 128 128
2.42355 0.664331 2.30901 128 128 128
2.46772 0.62932 2.31823 128 128 128
2.46843 0.630505 2.31942 128 128 128
2.46818 0.632194 2.32101 128 128 128
2.46838 0.631544 2.32191 128 128 128
2.468 0.629379 2.32387 128 128 128
2.40183 0.683518 2.36262 128 128 128
2.57447 0.805389 2.21273 128 128 128
2.53615 0.622834 2.28872 128 128 128
2.53724 0.623139 2.28843 128 128 128
2.53621 0.623089 2.28946 128 128 128
2.29235 0.702065 2.46345 128 128 128
2.29052 0.703023 2.46476 128 128 128
2.33728 0.715569 2.42784 128 128 128
2.29997 0.702873 2.46399 128 128 128
2.30532 0.704702 2.46732 128 128 128
2.49732 1.46575 3.68501 128 128 128
2.49148 1.47068 3.69293 128 128 128
2.49155 1.46023 3.69588 128 128 128
2.27126 1.54845 3.85319 128 128 128
2.57973 1.10634 3.72085 128 128 128
2.57835 1.1084 3.72465 128 128 128
2.19513 1.15363 4.01229 128 128 128
2.48666 1.49337 3.70568 128 128 128
1.98704 1.2745 4.14963 128 128 128
2.27154 1.54605 3.8684 128 128 128
2.59275 1.12011 3.72725 128 128 128
2.24912 1.1567 3.99705 128 128 128
2.21332 1.6359 3.91031 128 128 128
2.17497 1.19658 4.04581 128 128 128
2.19282 1.16451 4.05293 128 128 128
2.27801 1.56602 3.89224 128 128 128
2.45026 0.662038 2.28839 128 128 128
2.27753 0.796954 2.39565 128 128 128
2.43161 0.6654 2.30308 128 128 128
2.46185 0.657101 2.28116 128 128 128
2.26572 1.58525 3.90181 128 128 128
2.21541 1.5341 3.9597 128 128 128
2.16984 1.54786 4.00895 128 128 128
2.20189 1.9391 3.89373 128 128 128
2.17541 1.55315 4.01327 128 128 128
2.19398 1.52321 4.01064 128 128 128
2.20352 1.94706 3.90364 128 128 128
2.17823 1.55689 4.02198 128 128 128
2.11472 1.57154 4.07008 128 128 128
2.11183 1.57042 4.07313 128 128 128
2.17674 1.55801 4.02716 128 128 128
2.20242 1.95701 3.91258 128 128 128
2.17873 1.56075 4.03353 128 128 128
2.29865 1.58053 3.94085 128 128 128
2.21373 1.992 3.91224 128 128 128
2.20813 1.96475 3.92618 128 128 128
4.05577 1.75665 2.55136 128 128 128
2.86627 0.942383 4.06684 128 128 128
4.62893 1.01485 2.67798 128 128 128
4.53107 1.29089 2.69378 128 128 128
2.86557 0.944923 4.07337 128 128 128
2.84662 0.956662 4.08569 128 128 128
2.57623 1.11502 4.25859 128 128 128
2.81525 0.929031 4.12055 128 128 128
4.36332 1.12708 2.87079 128 128 128
4.37075 1.1203 2.86789 128 128 128
4.61572 1.08471 2.68703 128 128 128
2.85512 0.96023 4.08768 128 128 128
3.63685 0.766791 3.53442 128 128 128
2.856 0.968822 4.09576 128 128 128
4.86536 0.676816 2.60332 128 128 128
4.55678 1.29732 2.69669 128 128 128
2.67311 -0.3002 4.54748 128 128 128
4.87651 0.67354 2.60272 128 128 128
2.3185 0.477248 4.64172 128 128 128
2.00881 0.626853 4.84737 128 128 128
4.67027 0.80943 2.73259 128 128 128
4.87811 0.674112 2.60509 128 128 128
2.67336 -0.418728 4.58339 128 128 128
2.31487 0.463895 4.65275 128 128 128
2.67688 -0.301342 4.55511 128 128 128
2.67492 -0.411426 4.58426 128 128 128
2.68193 -0.228474 4.53928 128 128 128
4.39229 1.10698 2.88935 128 128 128
2.68181 -0.236585 4.54408 128 128 128
1.99834 0.704552 4.8506 128 128 128
4.68622 0.808326 2.73392 128 128 128
2.46294 0.462705 4.54752 128 128 128
2.6854 -0.162227 4.5264 128 128 128
4.69661 0.807029 2.7374 128 128 128
3.59285 -0.0972555 3.81424 128 128 128
2.30957 0.405339 4.69584 128 128 128
2.38236 0.891004 4.52294 128 128 128
4.67685 0.778214 2.76551 128 128 128
2.76932 1.17115 4.16004 128 128 128
4.68443 0.781009 2.76711 128 128 128
4.6849 0.907451 2.74084 128 128 128
3.54101 0.581342 3.67869 128 128 128
2.21257 1.32611 4.56725 128 128 128
2.98807 0.386076 4.19084 128 128 128
4.27274 0.0146564 3.28602 128 128 128
4.27192 0.0183321 3.28158 128 128 128
2.38325 0.841921 4.5554 128 128 128
2.98162 0.366343 4.20426 128 128 128
4.27024 0.310193 3.26741 128 128 128
2.68371 0.339149 4.44479 128 128 128
2.7347 1.14981 4.21246 128 128 128
4.67111 0.77673 2.75875 128 128 128
4.49945 0.886361 2.86816 128 128 128
2.45485 0.770613 4.57672 128 128 128
4.41575 1.10133 2.8966 128 128 128
2.33005 1.25195 4.51246 128 128 128
4.52481 0.889073 2.89126 128 128 128
2.57507 1.2223 4.33133 128 128 128
2.43985 0.763625 4.54663 128 128 128
2.1488 1.23016 4.66139 128 128 128
4.54279 0.796984 2.90275 128 128 128
2.14892 1.2285 4.66381 128 128 128
2.78959 1.10981 4.19683 128 128 128
2.44566 0.78661 4.54375 128 128 128
4.55229 0.796603 2.90444 128 128 128
2.58842 0.644797 4.46961 128 128 128
2.15026 1.23455 4.67002 128 128 128
2.33568 1.23589 4.52552 128 128 128
3.61798 0.53503 3.6959 128 128 128
2.32778 1.24682 4.52994 128 128 128
3.61708 0.534918 3.69736 128 128 128
4.154 0.348645 3.32531 128 128 128
2.50422 0.412827 4.59528 128 128 128
2.79005 1.11762 4.2039 128 128 128
2.33831 1.25705 4.52263 128 128 128
2.44508 0.784446 4.5531 128 128 128
3.62444 0.531536 3.69596 128 128 128
3.22856 0.29725 4.06243 128 128 128
2.17364 1.2667 4.65106 128 128 128
3.6258 0.538239 3.69607 128 128 128
2.4455 0.672374 4.58623 128 128 128
4.97063 0.681291 2.61898 128 128 128
2.74721 0.965533 4.28174 128 128 128
3.65194 0.60023 3.66707 128 128 128
2.98842 0.980762 4.12542 128 128 128
3.24301 0.316163 4.05426 128 128 128
2.14167 1.23973 4.6903 128 128 128
2.58128 0.741092 4.41369 128 128 128
4.46409 1.02356 2.93655 128 128 128
2.4438 0.673276 4.59479 128 128 128
4.27074 0.321439 3.25768 128 128 128
2.19443 1.28821 4.64699 128 128 128
2.14848 1.23817 4.69782 128 128 128
2.58281 1.22713 4.3658 128 128 128
2.59669 0.763286 4.46696 128 128 128
2.44396 0.67482 4.54127 128 128 128
4.4811 1.02977 2.93671 128 128 128
2.75177 0.963795 4.30097 128 128 128
2.73114 1.19687 4.26654 128 128 128
4.96806 0.692798 2.64828 128 128 128
4.50863 0.924812 2.9503 128 128 128
2.13943 1.24791 4.71689 128 128 128
3.24065 0.424047 4.05891 128 128 128
2.73198 1.1927 4.27086 128 128 128
2.01074 0.396843 5.02645 128 128 128
2.76261 1.08928 4.27569 128 128 128
2.13506 1.25012 4.72572 128 128 128
4.96198 0.710014 2.665 128 128 128
4.48245 0.94847 2.98565 128 128 128
2.05702 0.914117 4.88228 128 128 128
3.24422 0.425979 4.0816 128 128 128
3.2466 0.42429 4.0805 128 128 128
3.22164 1.1248 3.93283 128 128 128
2.49515 0.419765 4.67045 128 128 128
4.49064 0.940403 2.99759 128 128 128
2.06882 1.03626 4.87432 128 128 128
2.49978 0.421469 4.6912 128 128 128
4.67902 1.30062 2.78744 128 128 128
2.06036 0.924637 4.93632 128 128 128
4.76818 1.07103 2.78838 128 128 128
4.55463 0.838438 3.01849 128 128 128
4.55778 1.04989 2.96687 128 128 128
4.56225 0.843774 3.0183 128 128 128
2.51261 0.411128 4.65824 128 128 128
2.04691 0.92853 4.97004 128 128 128
4.65979 1.37116 2.83195 128 128 128
2.06877 1.03228 4.93472 128 128 128
2.06573 1.04649 4.98605 128 128 128
4.84632 1.10543 2.81672 128 128 128
4.1475 0.0523232 3.41535 128 128 128
2.04381 0.956698 5.04783 128 128 128
4.86616 1.10605 2.81902 128 128 128
2.07039 1.04073 5.01223 128 128 128
4.85944 1.16898 2.82235 128 128 128
3.42676 1.15003 5.16076 128 128 128
3.49978 1.1856 5.32728 128 128 128
5.21716 0.9768 4.76238 128 128 128
5.2325 0.99253 4.78354 128 128 128
5.26483 0.987931 4.80036 128 128 128
5.74172 0.982298 5.55421 128 128 128
7.30952 1.20418 7.03821 128 128 128
3.73046 0.758381 3.25094 128 128 128
3.79669 0.840886 3.09843 128 128 128
2.39174 1.60342 4.09119 128 128 128
4.66753 0.544705 2.58007 128 128 128
4.62688 1.47959 2.38958 128 128 128
3.59738 0.846338 3.34395 128 128 128
3.28747 0.783584 3.60199 128 128 128
3.6949 0.793294 3.28266 128 128 128
3.84146 0.827466 3.16375 128 128 128
3.70221 0.796017 3.28184 128 128 128
3.70071 0.795859 3.28688 128 128 128
3.27605 1.00422 3.57095 128 128 128
3.22834 1.00374 3.60988 128 128 128
3.70887 0.796022 3.28596 128 128 128
3.60661 0.84432 3.35627 128 128 128
3.8443 0.843486 3.14312 128 128 128
3.74778 0.761915 3.26673 128 128 128
3.60969 0.830474 3.3585 128 128 128
4.64599 1.48686 2.39453 128 128 128
3.66189 0.791895 3.32811 128 128 128
3.69636 0.77654 3.30539 128 128 128
3.74813 0.758725 3.27023 128 128 128
3.74765 0.756494 3.27695 128 128 128
4.26625 1.16477 2.77708 128 128 128
2.42342 0.664049 2.30956 128 128 128
2.39732 0.682675 2.34131 128 128 128
2.4521 0.703934 2.29977 128 128 128
2.42377 0.66389 2.3088 128 128 128
1.84468 0.763731 1.45483 128 128 128
1.82722 0.804684 1.82875 128 128 128
3.07664 0.542271 1.28212 128 128 128
3.31978 0.577393 1.40545 128 128 128
4.03461 0.0879319 1.49365 128 128 128
2.39423 0.811012 2.58909 128 128 128
3.99938 0.116602 1.54 128 128 128
2.42731 0.752407 2.67319 128 128 128
3.61907 1.51768 1.75193 128 128 128
3.58752 1.50309 1.7238 128 128 128
2.9136 -1.20745 3.28702 128 128 128
2.87036 -1.06682 3.27658 128 128 128
1.53499 -0.588698 4.55249 128 128 128
1.58639 -0.883696 4.53246 128 128 128
2.79109 -1.06333 3.67751 128 128 128
1.60048 -0.878717 4.49093 128 128 128
2.47245 1.22961 3.61578 128 128 128
1.93907 1.71791 4.02733 128 128 128
2.48111 1.2326 3.63952 128 128 128
1.9142 1.67365 3.92923 128 128 128
3.62947 1.38012 2.73272 128 128 128
3.68202 1.05499 2.87752 128 128 128
1.8932 1.74803 4.11297 128 128 128
1.88237 1.83789 3.91625 128 128 128
3.67168 1.40306 2.77738 128 128 128
2.27543 1.52817 3.82882 128 128 128
3.69316 1.42208 2.7852 128 128 128
2.29531 1.53705 3.82752 128 128 128
2.20954 1.93055 3.89509 128 128 128
2.19085 1.89852 3.83695 128 128 128
3.61554 0.996326 2.82781 128 128 128
2.25148 2.01605 3.91266 128 128 128
3.62301 0.989027 2.83421 128 128 128
3.71622 1.45803 2.88441 128 128 128
4.16616 1.76694 2.5988 128 128 128
1.9382 2.05814 4.09824 128 128 128
3.84168 0.527839 3.17684 128 128 128
2.11853 1.54954 4.03416 128 128 128
3.86921 0.666143 3.11659 128 128 128
3.91289 0.535383 3.26543 128 128 128
3.8784 0.533697 3.21657 128 128 128
3.90865 0.677815 3.15671 128 128 128
3.73018 0.627296 2.93946 128 128 128
3.18426 0.718066 3.69219 128 128 128
1.72808 2.05401 4.28287 128 128 128
3.4844 0.718698 3.44938 128 128 128
3.19061 0.797962 3.62363 128 128 128
3.20596 0.774225 3.22881 128 128 128
4.62099 0.778302 2.72318 128 128 128
3.46363 0.716282 3.28978 128 128 128
3.56263 0.654413 3.78215 128 128 128
3.47401 -1.12848 3.98595 128 128 128
2.82588 0.919024 3.92986 128 128 128
2.9286 0.954159 4.09138 128 128 128
3.49401 0.647921 3.69297 128 128 128
4.65506 0.786395 2.75111 128 128 128
2.11326 1.21141 4.53386 128 128 128
3.1204 0.242338 3.93162 128 128 128
2.31018 0.409416 4.61033 128 128 128
3.50956 -0.601888 3.83223 128 128 128
1.3297 1.28357 5.25414 128 128 128
2.00515 0.634185 4.77598 128 128 128
1.65183 0.932067 5.00158 128 128 128
1.99411 0.633528 4.71929 128 128 128
1.98889 0.633904 4.67908 128 128 128
2.57116 0.649088 4.3992 128 128 128
4.002 1.19008 2.43067 128 128 128
1.33537 1.2782 5.24998 128 128 128
4.23478 0.317671 3.23878 128 128 128
2.57092 0.645886 4.41256 128 128 128
3.32418 -0.938138 3.6031 128 128 128
2.67555 0.347676 4.41832 128 128 128
2.35881 0.582892 2.13896 128 128 128
2.03496 0.298804 -0.446975 128 128 128
2.13 0.137965 -0.566562 128 128 128
2.10704 0.136757 -0.562742 128 128 128
1.70046 -0.777556 -0.578565 128 128 128
1.96824 0.117878 -0.623784 128 128 128
1.71962 0.191598 -0.634395 128 128 128
2.69145 0.0730068 -0.573752 128 128 128
1.67495 0.697904 1.21394 128 128 128
2.67004 0.032724 -0.59123 128 128 128
0.904425 -0.828993 -1.61493 128 128 128
0.93377 0.0188873 -1.86086 128 128 128
0.902124 0.246472 -1.87624 128 128 128
2.04589 0.130344 -0.555195 128 128 128
2.37157 0.0410829 -0.196635 128 128 128
2.44946 0.231476 0.394422 128 128 128
2.42607 -0.634256 -0.464989 128 128 128
2.59135 -0.396422 -0.53595 128 128 128
2.32918 -1.43789 1.15587 128 128 128
2.75917 -1.45686 1.27899 128 128 128
1.07311 0.223427 -0.754505 128 128 128
1.89249 0.234681 -0.675812 128 128 128
1.60523 -0.917302 -0.966054 128 128 128
1.8809 -0.877143 -0.60091 128 128 128
1.15678 0.10004 -0.728665 128 128 128
1.13441 0.129508 -0.807788 128 128 128
1.10895 0.212893 -0.8578 128 128 128
1.14791 0.210897 -0.836409 128 128 128
1.12714 0.195332 -0.839968 128 128 128
1.10855 0.183962 -0.85585 128 128 128
1.11753 0.199303 -0.848863 128 128 128
1.11715 0.18149 -0.868415 128 128 128
1.15189 0.212212 -0.841412 128 128 128
1.13551 0.192769 -0.864697 128 128 128
2.29575 0.803204 2.29302 128 128 128
1.09724 0.203173 -0.754981 128 128 128
1.07238 0.22747 -0.772708 128 128 128
1.10529 0.192376 -0.749485 128 128 128
1.08581 0.236541 -0.781008 128 128 128
1.15729 0.130948 -0.728274 128 128 128
1.62082 -0.204205 -1.18457 128 128 128
1.17515 0.0789987 -0.884162 128 128 128
1.0769 0.228455 -0.772488 128 128 128
1.072 0.229917 -0.789336 128 128 128
-6.45138 -2.01236 -3.59152 128 128 128
-5.28122 -2.27688 -4.8503 128 128 128
-6.86728 -2.14584 -3.78926 128 128 128
-4.95492 -2.40788 -5.13146 128 128 128
-5.27108 -2.56349 -5.43039 128 128 128
-8.94298 -2.37545 -3.53207 128 128 128
-7.42277 -2.92431 -5.537 128 128 128
-7.35332 -2.89037 -5.49872 128 128 128
-10.1819 -4.00166 -7.50485 128 128 128
-7.35316 -2.90347 -5.53574 128 128 128
-0.522254 -0.0017532 -1.30709 128 128 128
-0.404074 -0.0251485 -1.3754 128 128 128
-0.432197 -0.0132107 -1.34722 128 128 128
-0.5034 -0.00224079 -1.33909 128 128 128
-0.436759 -0.0466428 -1.3205 128 128 128
-0.450266 -0.110488 -1.30673 128 128 128
-0.461027 -0.114725 -1.32577 128 128 128
-0.44282 -0.107551 -1.29935 128 128 128
-0.463581 -0.0827536 -1.35568 128 128 128
-0.394815 -0.0678477 -1.38206 128 128 128
-0.417563 -0.0719765 -1.37722 128 128 128
-0.463095 -0.089936 -1.31845 128 128 128
-0.46981 -0.0917675 -1.33222 128 128 128
-0.516944 -0.0135978 -1.32794 128 128 128
-0.342547 0.165199 -1.40561 128 128 128
-0.300157 0.186168 -1.47672 128 128 128
-0.370202 0.196084 -1.45056 128 128 128
-0.277772 0.181881 -1.47626 128 128 128
-0.22522 0.172091 -1.48688 128 128 128
-0.421959 -0.00933566 -1.3153 128 128 128
-0.260544 0.177736 -1.42839 128 128 128
-0.451894 -0.0969994 -1.2477 128 128 128
-0.537063 -0.0245647 -1.24696 128 128 128
-0.548153 -0.0296674 -1.25389 128 128 128
-0.46028 -0.0926213 -1.24365 128 128 128
-0.486415 -0.0979583 -1.25862 128 128 128
-0.273438 0.179163 -1.41009 128 128 128
-0.278311 0.181884 -1.42171 128 128 128
-0.252381 0.175835 -1.41859 128 128 128
-0.456752 -0.125508 -1.23685 128 128 128
-0.46975 -0.0842367 -1.28781 128 128 128
-0.463043 -0.0848205 -1.28744 128 128 128
-0.417456 -0.0148609 -1.2977 128 128 128
-0.220749 0.114275 -1.42792 128 128 128
-0.448856 -0.122448 -1.2376 128 128 128
-0.389968 0.184274 -1.33011 128 128 128
-0.532023 -0.0216807 -1.17844 128 128 128
-0.33539 0.1841 -1.3791 128 128 128
-0.538554 -0.00528888 -1.20509 128 128 128
-0.242118 0.142396 -1.41679 128 128 128
-0.239009 0.141719 -1.41677 128 128 128
0.694226 -0.0136323 -2.23168 128 128 128
0.702046 -0.0337544 -2.17191 128 128 128
0.686694 -0.923332 -2.02833 128 128 128
0.686042 -0.93993 -2.05858 128 128 128
0.992072 0.260008 -1.23724 128 128 128
1.21884 -0.881342 -1.37622 128 128 128
1.21734 -0.877066 -1.3727 128 128 128
-0.433116 -0.0170752 -1.3216 128 128 128
-0.429821 -0.0466582 -1.31393 128 128 128
-0.28265 0.186363 -1.47378 128 128 128
-0.280145 0.188933 -1.4727 128 128 128
-0.275217 0.191594 -1.46968 128 128 128
-0.406779 -0.00621557 -1.31885 128 128 128
-0.418324 -0.0206771 -1.35326 128 128 128
-0.279342 0.186357 -1.47531 128 128 128
-0.445737 -0.128205 -1.26958 128 128 128
-0.403558 -0.020568 -1.33039 128 128 128
-0.402464 -0.0197888 -1.32966 128 128 128
-0.434938 -0.0482077 -1.31424 128 128 128
-0.411004 -0.0200368 -1.33514 128 128 128
-0.411193 -0.00880052 -1.32893 128 128 128
-0.451563 -0.0637723 -1.33188 128 128 128
-0.471572 -0.0988693 -1.3088 128 128 128
-0.421235 -0.070416 -1.30955 128 128 128
-0.426744 -0.0717684 -1.32141 128 128 128
-0.445783 -0.0646491 -1.32245 128 128 128
-0.446573 -0.0813993 -1.31467 128 128 128
-0.417194 -0.0210363 -1.34867 128 128 128
-0.453977 -0.0790959 -1.31264 128 128 128
-0.472176 -0.0990736 -1.33641 128 128 128
-0.459899 -0.0828711 -1.32759 128 128 128
-0.458912 -0.0783556 -1.31728 128 128 128
-0.48163 -0.130785 -1.32277 128 128 128
-0.481142 -0.133139 -1.32305 128 128 128
-0.483342 -0.111327 -1.33951 128 128 128
-0.465573 -0.131191 -1.29161 128 128 128
-0.492763 -0.129647 -1.33688 128 128 128
-0.479507 -0.109599 -1.3367 128 128 128
-0.467854 -0.109114 -1.31811 128 128 128
-0.472569 -0.133099 -1.305 128 128 128
-0.476379 -0.133554 -1.30971 128 128 128
-0.443533 0.199449 -1.40189 128 128 128
-0.421676 -0.870174 -1.23976 128 128 128
-0.416148 -0.861057 -1.27724 128 128 128
-0.406152 -0.8506 -1.26512 128 128 128
-0.410545 -0.860471 -1.27308 128 128 128
-0.426526 -0.889772 -1.26905 128 128 128
-0.410822 -0.875901 -1.26008 128 128 128
-0.428961 -0.88134 -1.28009 128 128 128
-0.417236 -0.879201 -1.25937 128 128 128
-0.398005 -0.853362 -1.252 128 128 128
-0.406925 -0.864797 -1.26834 128 128 128
-0.470201 -0.891827 -1.23777 128 128 128
0.205964 -0.34828 -1.75093 128 128 128
0.212985 -0.361072 -1.80276 128 128 128
0.0719201 -0.544926 -1.63427 128 128 128
0.0673739 -0.542444 -1.69472 128 128 128
0.0597854 -0.371924 -1.76965 128 128 128
0.0641963 -0.605933 -1.68712 128 128 128
0.065818 -0.603444 -1.68314 128 128 128
0.126476 -0.370101 -1.76702 128 128 128
0.126741 -0.371118 -1.77194 128 128 128
0.131463 -0.370121 -1.76966 128 128 128
0.130755 -0.367677 -1.77077 128 128 128
0.131175 -0.358135 -1.72358 128 128 128
0.120565 -0.365223 -1.77498 128 128 128
0.132999 -0.365569 -1.75672 128 128 128
0.134188 -0.364549 -1.75641 128 128 128
0.203682 -0.376506 -1.83823 128 128 128
0.682143 -0.011912 -2.18503 128 128 128
0.204331 -0.371838 -1.83732 128 128 128
0.0901131 -0.5436 -1.77323 128 128 128
0.143998 -0.654364 -1.71115 128 128 128
0.139482 -0.656002 -1.71251 128 128 128
0.141135 -0.643016 -1.69693 128 128 128
0.684212 -0.00699853 -2.20674 128 128 128
0.144441 -0.648729 -1.69525 128 128 128
0.685482 -0.828099 -1.84812 128 128 128
0.676222 -0.830498 -1.86243 128 128 128
0.700785 -0.857431 -1.90451 128 128 128
0.699634 -0.854969 -1.90204 128 128 128
0.704047 -0.901961 -2.04252 128 128 128
0.670533 -0.902467 -1.98688 128 128 128
0.693716 -0.905639 -2.02104 128 128 128
0.684978 -0.928518 -2.03486 128 128 128
0.682331 -0.897599 -1.98014 128 128 128
0.711921 -0.954265 -2.08104 128 128 128
0.656169 -0.977182 -2.04452 128 128 128
0.673489 -0.977247 -2.05874 128 128 128
0.669418 -0.944991 -2.0609 128 128 128
0.665916 -0.991503 -2.07518 128 128 128
0.669214 -1.01424 -2.1154 128 128 128
0.662885 -0.997457 -2.08247 128 128 128
0.672851 -0.948437 -2.07049 128 128 128
0.667269 -1.00874 -2.11291 128 128 128
0.660149 -0.988239 -2.07826 128 128 128
-3.0856 -2.13442 -2.61565 128 128 128
-2.70067 -1.88374 -2.32911 128 128 128
-3.49704 -1.70217 -3.68835 128 128 128
-8.71656 -3.48501 -6.2926 128 128 128
-0.451499 -0.0811424 -1.22281 128 128 128
-0.54293 -0.0160223 -1.22591 128 128 128
-0.46371 -0.10056 -1.23876 128 128 128
-0.457487 -0.119488 -1.2252 128 128 128
-0.470043 -0.118198 -1.24368 128 128 128
-0.463825 -0.0976679 -1.22996 128 128 128
-0.256632 0.177025 -1.41193 128 128 128
-0.460564 -0.119077 -1.22967 128 128 128
-0.287441 0.207164 -1.4276 128 128 128
-0.517567 -0.030105 -1.23427 128 128 128
-0.260625 0.178853 -1.42722 128 128 128
-1.02907 0.0922305 -0.921707 128 128 128
-0.497812 0.000625443 -1.27947 128 128 128
-0.303536 0.150808 -1.33355 128 128 128
-0.256824 0.174887 -1.4195 128 128 128
-0.340817 0.186954 -1.38628 128 128 128
-1.16136 0.103808 -0.832807 128 128 128
-1.30987 0.0109639 -0.72587 128 128 128
-2.5094 -1.75051 0.966835 128 128 128
-3.11962 0.240138 0.663106 128 128 128
-3.10238 0.226786 0.682234 128 128 128
-3.10971 0.232527 0.666138 128 128 128
-3.0387 -0.419647 0.588142 128 128 128
-4.28994 -1.15352 1.75853 128 128 128
-2.21374 -1.98201 -3.73783 128 128 128
-2.26732 -2.03712 -3.82356 128 128 128
-2.96407 -2.05402 -2.51094 128 128 128
-3.13479 -2.21584 -2.58705 128 128 128
-3.06707 -2.09364 -2.6128 128 128 128
-3.14691 -2.14296 -2.68388 128 128 128
-3.15642 -2.23394 -2.60724 128 128 128
-3.16253 -2.22672 -2.60766 128 128 128
-3.93221 -1.98457 -1.90481 128 128 128
-4.03786 -2.0253 -1.94598 128 128 128
-4.73988 -1.63245 -1.98115 128 128 128
-4.32602 -2.14612 -2.1466 128 128 128
-4.94889 -1.74037 -1.9759 128 128 128
-3.76954 -2.1909 -3.56588 128 128 128
-3.53138 -2.04515 -3.36353 128 128 128
-3.25041 -1.91542 -3.10666 128 128 128
-4.00064 -2.31205 -3.78544 128 128 128
-4.99322 -2.20635 -3.071 128 128 128
-3.24982 -2.21604 -5.2094 128 128 128
-5.02441 -2.21673 -3.09483 128 128 128
-4.22367 -2.50098 -3.91757 128 128 128
-6.48654 -2.07732 -3.55634 128 128 128
3.9811 0.413884 1.6569 128 128 128
3.98274 0.410723 1.66129 128 128 128
3.98844 0.409197 1.66283 128 128 128
3.9931 0.415702 1.65793 128 128 128
3.98811 0.424422 1.66606 128 128 128
