ply
format ascii 1.0
element vertex 1273
property float x
property float y
property float z
property uchar red
property uchar green
property uchar blue
end_header
33.5366 -11.6963 2.15637 128 128 128
33.6567 -10.689 0.702506 128 128 128
33.101 -13.8832 1.42654 128 128 128
34.5399 -15.3603 1.82309 128 128 128
34.0163 -10.6117 -0.237729 128 128 128
34.3797 -10.9324 0.703437 128 128 128
34.3558 -10.9273 0.716717 128 128 128
33.1404 -13.5741 1.54065 128 128 128
34.669 -14.9065 0.693489 128 128 128
34.3829 -11.0007 2.112 128 128 128
30.9658 -9.31464 0.620573 128 128 128
31.0544 -9.28929 0.964336 128 128 128
30.9247 -9.2778 0.809028 128 128 128
31.204 -11.0656 1.63836 128 128 128
32.0783 -11.7592 1.90692 128 128 128
31.5872 -10.9956 -0.347796 128 128 128
31.0948 -11.626 0.757482 128 128 128
31.2235 -10.7503 1.69926 128 128 128
33.6144 -10.1308 1.64171 128 128 128
31.3339 -12.2183 0.56109 128 128 128
33.8306 -8.98009 0.7412 128 128 128
34.0282 -8.93351 1.52988 128 128 128
35.7236 -11.845 -0.775408 128 128 128
30.4859 -10.7217 1.68867 128 128 128
32.312 -12.246 0.632421 128 128 128
33.9045 -8.61587 1.43467 128 128 128
33.278 -11.4947 2.16788 128 128 128
33.9522 -11.6437 0.389714 128 128 128
30.9076 -9.34294 0.587143 128 128 128
30.9026 -9.3461 0.588744 128 128 128
30.9696 -9.33949 0.568414 128 128 128
30.6876 -10.8333 1.55326 128 128 128
31.1325 -10.8121 2.09861 128 128 128
31.6765 -9.77939 2.10858 128 128 128
32.1363 -9.63937 0.508349 128 128 128
33.5152 -10.0843 1.62957 128 128 128
33.2852 -11.5642 -0.407282 128 128 128
33.0417 -12.837 0.596407 128 128 128
34.3285 -10.3558 -0.426594 128 128 128
34.7731 -8.36839 1.7623 128 128 128
33.161 -11.181 1.97034 128 128 128
34.495 -11.8981 2.25902 128 128 128
34.0827 -11.7513 0.72365 128 128 128
33.642 -12.4946 1.59436 128 128 128
31.3173 -9.48246 2.12221 128 128 128
30.6793 -10.8512 1.58318 128 128 128
31.3004 -9.48075 2.11623 128 128 128
30.7648 -10.8553 1.56895 128 128 128
30.8207 -10.9094 1.5873 128 128 128
31.6236 -9.75857 2.18162 128 128 128
32.1854 -8.5539 2.17189 128 128 128
31.6707 -9.79252 2.11083 128 128 128
31.1952 -11.0173 2.04971 128 128 128
31.3304 -10.8698 2.17894 128 128 128
31.3277 -10.8105 2.17451 128 128 128
31.2254 -10.7707 2.10093 128 128 128
31.4663 -10.8087 2.14979 128 128 128
32.4397 -11.6482 0.607779 128 128 128
31.6797 -11.0851 0.615209 128 128 128
31.7864 -11.2321 1.70476 128 128 128
31.6974 -11.128 1.84601 128 128 128
32.3029 -10.5121 2.17265 128 128 128
32.2635 -10.4685 2.15029 128 128 128
33.5612 -8.52473 0.710763 128 128 128
34.2329 -8.44306 1.63791 128 128 128
33.4031 -8.74426 2.13932 128 128 128
33.525 -8.73731 2.17411 128 128 128
32.7493 -11.478 1.09114 128 128 128
33.6849 -8.7216 2.23889 128 128 128
33.7316 -8.7422 2.24329 128 128 128
34.0367 -8.6157 1.46222 128 128 128
33.8155 -8.63522 1.57688 128 128 128
34.4879 -10.4956 -0.504691 128 128 128
34.3689 -8.93216 1.9805 128 128 128
34.1261 -10.8358 0.180837 128 128 128
34.2545 -10.5288 2.01655 128 128 128
34.7639 -10.5653 2.12438 128 128 128
34.9977 -11.5493 1.20256 128 128 128
32.4407 -14.5532 2.49432 128 128 128
32.8417 -15.0935 1.44719 128 128 128
34.0223 -13.5409 0.797624 128 128 128
34.4908 -13.9626 0.785361 128 128 128
31.1545 -9.43572 0.27832 128 128 128
31.2434 -9.47813 2.09248 128 128 128
31.4205 -9.49768 1.55523 128 128 128
31.6174 -11.0871 0.560918 128 128 128
31.4325 -10.7805 2.12385 128 128 128
31.7232 -11.1493 1.87188 128 128 128
31.6898 -11.1278 1.87363 128 128 128
31.7459 -11.1906 1.66591 128 128 128
32.6712 -9.94479 2.23032 128 128 128
33.129 -10.066 2.18308 128 128 128
33.2531 -11.6162 1.57924 128 128 128
34.2198 -10.3101 2.14411 128 128 128
34.3103 -10.405 2.22641 128 128 128
33.6971 -12.4598 1.90244 128 128 128
33.5438 -9.98583 -0.105525 128 128 128
32.8015 -11.5418 0.707827 128 128 128
33.8567 -11.5607 2.16391 128 128 128
33.8842 -11.5402 2.18208 128 128 128
33.3851 -10.4388 0.0141699 128 128 128
34.1095 -11.7778 -0.309965 128 128 128
32.192 -9.59644 1.27755 128 128 128
33.0625 -11.5959 1.65861 128 128 128
33.6753 -10.2261 2.19929 128 128 128
34.6665 -10.7414 -0.576434 128 128 128
34.2602 -11.885 -0.395026 128 128 128
33.825 -13.421 1.6094 128 128 128
32.9477 -11.0703 1.79316 128 128 128
36.132 -15.9519 2.24771 128 128 128
34.1357 -13.3547 0.727407 128 128 128
35.3191 -10.7061 1.78733 128 128 128
34.9032 -10.9037 1.65461 128 128 128
33.0703 -9.88892 1.09966 128 128 128
33.3039 -10.0209 0.6063 128 128 128
32.8185 -11.5355 0.5274 128 128 128
33.598 -10.1747 2.18338 128 128 128
32.8041 -11.2374 2.12085 128 128 128
32.2333 -9.6326 0.532867 128 128 128
32.2347 -9.63276 1.10105 128 128 128
33.374 -10.0939 1.54159 128 128 128
33.1165 -11.3985 2.20553 128 128 128
32.6925 -11.5024 2.08734 128 128 128
34.4039 -10.3716 -0.363981 128 128 128
34.4211 -10.8577 -0.31492 128 128 128
34.6445 -10.7012 -0.567404 128 128 128
33.6554 -13.2056 1.52053 128 128 128
32.2562 -9.62809 1.50014 128 128 128
32.2994 -9.5733 1.40343 128 128 128
34.2173 -10.6972 1.33949 128 128 128
33.8626 -10.9444 1.92028 128 128 128
33.1328 -9.88113 1.38916 128 128 128
33.3615 -10.0087 0.537023 128 128 128
33.6841 -10.1302 2.14909 128 128 128
33.8916 -10.243 1.84444 128 128 128
33.6486 -10.9057 1.69083 128 128 128
34.5566 -10.6771 -0.378014 128 128 128
34.4778 -10.9775 0.711709 128 128 128
34.4472 -11.0276 0.624616 128 128 128
34.1285 -11.7394 0.725639 128 128 128
33.4864 -10.0178 0.514134 128 128 128
33.8846 -10.2129 1.76125 128 128 128
32.8269 -9.74924 1.27694 128 128 128
34.8285 -11.4773 1.17427 128 128 128
33.134 -9.8553 1.16489 128 128 128
33.2622 -9.98425 0.609204 128 128 128
33.3409 -9.9733 1.0574 128 128 128
33.4984 -9.97049 1.08588 128 128 128
33.146 -11.442 0.569645 128 128 128
34.2057 -11.026 -0.333932 128 128 128
33.9026 -10.2068 0.675912 128 128 128
33.8834 -11.5381 0.781463 128 128 128
33.413 -10.8929 1.59206 128 128 128
33.8438 -10.9618 2.06417 128 128 128
34.0236 -10.2311 1.68264 128 128 128
33.8232 -10.9993 1.95796 128 128 128
32.2352 -9.62839 1.24375 128 128 128
33.0185 -9.78235 1.33209 128 128 128
33.048 -9.85607 1.15134 128 128 128
33.1863 -9.979 2.1835 128 128 128
34.0201 -10.1855 -0.17811 128 128 128
33.0929 -11.3322 2.23113 128 128 128
33.3232 -11.547 -0.152801 128 128 128
33.3067 -11.5745 -0.43289 128 128 128
33.585 -10.8901 2.28413 128 128 128
33.4786 -11.7966 1.67708 128 128 128
33.7811 -10.266 2.24617 128 128 128
33.5949 -11.0233 1.70297 128 128 128
33.4223 -11.4658 2.213 128 128 128
34.0241 -10.2248 2.19265 128 128 128
33.3365 -13.5916 1.51899 128 128 128
34.7383 -10.826 -0.237203 128 128 128
33.5952 -12.6547 0.492126 128 128 128
33.5505 -13.507 1.54135 128 128 128
34.4106 -11.3516 -0.427779 128 128 128
33.9707 -10.6686 -0.106606 128 128 128
34.3033 -10.4898 2.22867 128 128 128
34.5713 -10.8174 0.914079 128 128 128
33.4793 -12.9682 1.44934 128 128 128
34.8296 -10.767 1.64524 128 128 128
33.5664 -13.0579 1.37916 128 128 128
32.9337 -9.87581 1.06622 128 128 128
33.1492 -9.85036 1.3596 128 128 128
33.1463 -9.85393 1.33541 128 128 128
33.243 -9.90744 0.579682 128 128 128
33.263 -11.5446 1.80469 128 128 128
33.2337 -12.8379 1.86457 128 128 128
33.215 -14.1006 1.38797 128 128 128
33.7818 -11.7215 1.44035 128 128 128
6.31007 -3.47691 1.48416 128 128 128
5.60464 -1.8104 -0.500766 128 128 128
5.56817 -1.83621 0.0798138 128 128 128
5.47959 -1.9165 2.00266 128 128 128
4.5772 -1.52069 -0.46755 128 128 128
4.64445 -2.79943 2.00238 128 128 128
4.43431 -1.43988 1.69197 128 128 128
4.22603 -1.38861 0.34494 128 128 128
3.21094 -2.43882 2.13536 128 128 128
3.54696 -1.63277 2.03038 128 128 128
3.80602 -1.29263 -0.346224 128 128 128
3.61332 -1.70687 1.82103 128 128 128
5.06264 -2.98754 2.02288 128 128 128
4.25537 -1.53807 0.945084 128 128 128
-0.70499 -0.878621 0.662209 128 128 128
-0.245308 -0.962591 1.10631 128 128 128
6.33178 -3.47654 1.42274 128 128 128
6.40591 -3.3987 1.042 128 128 128
5.21025 -3.08364 2.00691 128 128 128
6.09725 -2.03388 2.03084 128 128 128
5.3168 -3.95688 2.04812 128 128 128
5.52906 -1.8495 2.04147 128 128 128
4.97622 -1.40019 0.946832 128 128 128
4.89463 -1.79449 2.04507 128 128 128
4.96114 -1.37753 0.954594 128 128 128
4.8682 -1.78954 2.04488 128 128 128
4.03987 -1.37094 1.17966 128 128 128
3.06058 -0.968759 0.352807 128 128 128
2.68096 -2.42524 2.04124 128 128 128
2.61049 -2.26388 2.08555 128 128 128
1.0282 -1.73509 2.12556 128 128 128
2.99957 -0.979461 1.84615 128 128 128
-8.02059 -0.980092 3.56716 128 128 128
4.61062 -1.32729 -0.555405 128 128 128
3.96902 -2.67633 2.02754 128 128 128
3.19605 -0.94621 0.495553 128 128 128
3.04096 -1.06463 -0.477831 128 128 128
3.07006 -1.01959 1.49773 128 128 128
-13.5324 -10.3762 -0.702661 128 128 128
6.41322 -2.0457 0.452444 128 128 128
5.88553 -3.34216 0.877635 128 128 128
6.12721 -1.96556 1.09149 128 128 128
5.88744 -1.93302 0.462595 128 128 128
5.76701 -1.84546 1.13594 128 128 128
5.23511 -1.59445 1.07372 128 128 128
4.97311 -1.56528 1.52911 128 128 128
4.65535 -3.03014 1.78362 128 128 128
4.52297 -1.52058 1.92617 128 128 128
3.68622 -1.28704 2.08294 128 128 128
2.29167 -0.75002 1.91661 128 128 128
5.50469 -1.74717 1.46946 128 128 128
4.87765 -1.57271 2.15295 128 128 128
5.02157 -1.62024 1.4935 128 128 128
4.58331 -1.47627 1.47924 128 128 128
2.50349 -2.48006 1.83428 128 128 128
3.50604 -1.61617 2.04654 128 128 128
2.31683 -2.49336 2.0459 128 128 128
5.82826 -3.32296 0.861234 128 128 128
5.10943 -1.68278 1.58489 128 128 128
4.50855 -3.00929 2.02648 128 128 128
4.64704 -2.92282 1.95206 128 128 128
4.15235 -1.29618 1.34973 128 128 128
4.25005 -1.42416 1.01072 128 128 128
4.0889 -1.41616 0.991838 128 128 128
4.32346 -1.59051 2.02199 128 128 128
4.1907 -1.47044 2.12327 128 128 128
3.18294 -1.07895 1.79863 128 128 128
2.92117 -1.00215 0.773879 128 128 128
3.47001 -1.22491 1.62966 128 128 128
5.28512 -3.02022 1.92019 128 128 128
4.56413 -2.99686 1.99152 128 128 128
4.97539 -1.40657 0.9061 128 128 128
5.03096 -1.5935 1.65062 128 128 128
4.68861 -1.71179 2.0616 128 128 128
4.05616 -2.67329 1.96512 128 128 128
1.89729 -2.40936 2.08032 128 128 128
3.53564 -0.977955 1.0803 128 128 128
3.32383 -2.48495 2.06035 128 128 128
3.35835 -1.13849 1.55905 128 128 128
5.25778 -1.64407 0.981411 128 128 128
5.28284 -1.65148 0.925528 128 128 128
5.10978 -1.65894 1.57705 128 128 128
4.4499 -2.75842 2.00272 128 128 128
5.06666 -1.49243 0.934014 128 128 128
4.45622 -2.75137 2.03029 128 128 128
4.58783 -2.78861 2.02024 128 128 128
4.93493 -1.74528 2.05497 128 128 128
4.98999 -1.45177 1.09047 128 128 128
4.99185 -1.4663 1.08304 128 128 128
4.03061 -2.75012 2.0365 128 128 128
4.18095 -1.41526 0.797291 128 128 128
4.17452 -1.38516 0.931239 128 128 128
4.06366 -1.36833 1.17671 128 128 128
4.19435 -1.52446 0.861546 128 128 128
3.40172 -1.08285 1.83625 128 128 128
3.22567 -1.24157 -0.327359 128 128 128
2.99288 -0.960963 1.53527 128 128 128
-0.318901 -1.41826 1.47201 128 128 128
-111.543 16.6231 25.3685 128 128 128
1.2007 -2.11521 2.14885 128 128 128
4.18375 -2.97789 1.19795 128 128 128
5.03472 -1.48153 1.58421 128 128 128
5.18718 -1.50819 0.955077 128 128 128
5.06215 -1.60826 1.53611 128 128 128
5.08077 -1.61975 1.58955 128 128 128
5.03806 -1.60867 1.64289 128 128 128
5.00463 -1.64294 1.58777 128 128 128
5.08113 -1.47359 0.946992 128 128 128
4.02998 -1.2238 1.47186 128 128 128
4.08437 -1.27633 1.26704 128 128 128
3.79869 -1.28047 -0.366302 128 128 128
3.71738 -1.27355 2.1073 128 128 128
3.38153 -1.56602 1.87903 128 128 128
2.34896 -0.791667 -0.530553 128 128 128
3.45868 -1.62258 1.83628 128 128 128
3.37652 -1.20079 -0.390273 128 128 128
3.0722 -0.76584 1.74708 128 128 128
3.14893 -0.885396 0.497317 128 128 128
2.75144 -2.37653 2.11474 128 128 128
2.35094 -0.470619 1.70285 128 128 128
0.649756 -1.6724 2.14725 128 128 128
0.279847 -1.66146 -0.499816 128 128 128
5.18146 -1.52096 1.01294 128 128 128
5.1381 -1.53501 0.899604 128 128 128
5.04782 -1.63112 1.55678 128 128 128
5.03182 -1.61534 1.57834 128 128 128
4.99693 -1.60173 1.60906 128 128 128
5.02699 -1.61474 1.58257 128 128 128
5.00642 -1.63245 1.56163 128 128 128
5.00488 -1.61754 1.58617 128 128 128
5.0158 -1.62534 1.60762 128 128 128
4.99147 -1.57452 1.5062 128 128 128
4.99218 -1.62715 1.60337 128 128 128
4.96868 -1.39655 0.994241 128 128 128
5.00948 -1.61075 1.50955 128 128 128
4.68707 -1.57106 2.17198 128 128 128
4.56844 -1.42597 1.50244 128 128 128
4.42659 -1.47203 1.38154 128 128 128
5.21476 -1.54211 1.08452 128 128 128
4.50891 -2.99649 2.0315 128 128 128
4.98084 -1.43457 1.09318 128 128 128
5.01027 -1.62521 1.60615 128 128 128
4.4471 -3.08823 1.8764 128 128 128
5.00342 -1.65003 1.52759 128 128 128
5.10422 -1.49971 1.01685 128 128 128
4.94281 -1.81171 2.01082 128 128 128
4.52505 -2.78765 2.06925 128 128 128
4.64147 -1.38768 1.38185 128 128 128
4.58877 -1.45224 1.4895 128 128 128
4.49896 -1.47211 1.44798 128 128 128
4.41676 -1.42066 1.52392 128 128 128
4.39202 -1.53213 2.03686 128 128 128
4.2794 -1.49378 2.11373 128 128 128
4.1458 -1.44537 0.954753 128 128 128
3.14189 -2.64115 2.03979 128 128 128
3.74207 -1.22038 0.387574 128 128 128
3.39617 -2.56252 2.06786 128 128 128
3.49235 -1.63655 1.89615 128 128 128
3.24302 -2.55744 1.89979 128 128 128
3.62109 -1.24854 1.79552 128 128 128
2.38396 -2.26484 2.1037 128 128 128
2.42784 -2.42162 2.04735 128 128 128
2.16957 -0.663172 1.95015 128 128 128
3.15445 -1.07578 1.80551 128 128 128
4.60699 -1.31933 1.37184 128 128 128
4.47721 -1.46685 1.47089 128 128 128
4.51402 -1.48976 1.40066 128 128 128
4.5392 -1.41817 1.50778 128 128 128
4.45272 -1.41655 1.31785 128 128 128
4.57368 -1.56773 1.47026 128 128 128
4.47542 -1.45422 1.5209 128 128 128
4.42959 -1.47571 1.37755 128 128 128
4.53543 -1.54012 1.43975 128 128 128
4.49516 -1.49156 1.4461 128 128 128
4.25917 -1.38357 0.304846 128 128 128
4.48665 -1.50431 1.53162 128 128 128
4.26488 -1.32905 1.545 128 128 128
3.91169 -2.71547 2.10041 128 128 128
4.41585 -1.49759 1.59423 128 128 128
4.38021 -1.41018 1.99595 128 128 128
4.11882 -1.45171 0.863894 128 128 128
3.93744 -2.66128 2.03796 128 128 128
4.32581 -1.45994 2.04791 128 128 128
4.97336 -1.39463 0.958851 128 128 128
4.48579 -1.46323 1.45315 128 128 128
4.35001 -1.40864 1.40231 128 128 128
4.37885 -1.38435 1.5887 128 128 128
4.44475 -1.51627 1.44974 128 128 128
4.38973 -1.40002 1.69886 128 128 128
4.44503 -1.46575 1.66707 128 128 128
4.05564 -2.69991 2.0113 128 128 128
4.13384 -2.71452 1.95862 128 128 128
4.27367 -1.44003 0.350652 128 128 128
4.35357 -1.39332 1.60389 128 128 128
4.3886 -1.46337 1.61609 128 128 128
4.14935 -1.3342 0.449539 128 128 128
4.47035 -1.48281 2.02992 128 128 128
4.26424 -1.38037 1.32473 128 128 128
4.20854 -1.32536 1.35277 128 128 128
4.36988 -1.52284 2.04743 128 128 128
4.17986 -1.42186 0.886734 128 128 128
4.1367 -1.45095 0.890836 128 128 128
4.26295 -1.47502 2.12535 128 128 128
4.0951 -1.335 1.11654 128 128 128
4.11052 -1.31532 0.342294 128 128 128
4.04785 -2.86392 1.617 128 128 128
5.0105 -1.6557 1.58071 128 128 128
4.97994 -1.55975 1.55366 128 128 128
4.96273 -1.55204 1.54777 128 128 128
4.98553 -1.57414 1.55056 128 128 128
5.02445 -1.66136 1.51771 128 128 128
4.96848 -1.40605 0.894763 128 128 128
5.01061 -1.35526 1.04814 128 128 128
5.0262 -1.36362 1.04994 128 128 128
4.97463 -1.44915 1.00135 128 128 128
4.35914 -1.41755 2.08119 128 128 128
4.44582 -1.59698 2.00895 128 128 128
3.85694 -2.75553 2.13784 128 128 128
4.11672 -1.42492 1.18572 128 128 128
3.9043 -1.92559 2.03092 128 128 128
4.06368 -1.25638 1.32768 128 128 128
4.02814 -1.33967 1.21042 128 128 128
4.08117 -1.40276 1.19459 128 128 128
4.08595 -1.42326 0.735221 128 128 128
2.5506 -2.52328 1.9683 128 128 128
3.65185 -1.24261 1.78492 128 128 128
2.72747 -1.37277 2.06477 128 128 128
2.876 -1.00539 1.88603 128 128 128
2.83883 -0.94441 0.781868 128 128 128
-0.269472 0.290499 2.5206 128 128 128
1.36749 -0.754411 2.13093 128 128 128
5.0788 -1.63181 1.52708 128 128 128
4.19314 -1.3715 1.27018 128 128 128
3.46462 -1.02678 1.113 128 128 128
3.08618 -1.43993 1.77557 128 128 128
2.37492 -2.31348 2.0767 128 128 128
2.54232 -0.921525 -0.458743 128 128 128
2.90682 -0.9693 1.02761 128 128 128
2.57057 -0.892324 0.310028 128 128 128
2.30144 -0.77063 2.12181 128 128 128
1.1713 -1.90751 2.12865 128 128 128
-0.72886 -0.728185 1.30013 128 128 128
0.643128 -1.69114 2.10922 128 128 128
-0.0941815 -0.196669 1.84383 128 128 128
2.72654 -1.34977 2.06286 128 128 128
2.76236 -2.28929 2.05436 128 128 128
2.94873 -1.01931 1.02524 128 128 128
3.98167 -1.33229 1.42523 128 128 128
3.3908 -2.5594 2.06663 128 128 128
3.09986 -2.47273 2.18954 128 128 128
3.44799 -1.0907 1.25071 128 128 128
3.34389 -0.938395 1.03673 128 128 128
3.6642 -1.21723 1.79187 128 128 128
3.15275 -0.924635 0.52032 128 128 128
2.73674 -2.30577 2.11735 128 128 128
3.19781 -1.01272 1.58362 128 128 128
2.52443 -2.25995 2.10561 128 128 128
2.41754 -2.29008 2.08879 128 128 128
2.61584 -0.898276 0.814693 128 128 128
1.99659 -2.15159 2.10508 128 128 128
1.46536 -0.769126 2.10274 128 128 128
-0.183468 -0.684241 1.48836 128 128 128
-0.206129 -0.696218 0.933598 128 128 128
4.21063 -1.41975 1.07379 128 128 128
4.13516 -1.37163 1.14166 128 128 128
4.20138 -1.42507 1.12674 128 128 128
4.19969 -1.45621 0.908347 128 128 128
4.02386 -1.37623 1.10413 128 128 128
4.06574 -1.42731 1.01905 128 128 128
3.59453 -2.6802 1.53397 128 128 128
3.34426 -0.908755 1.1345 128 128 128
3.76772 -1.23555 1.48334 128 128 128
3.72518 -1.20266 1.49228 128 128 128
3.34785 -0.931011 1.12472 128 128 128
3.49127 -1.63369 1.90387 128 128 128
3.46564 -1.60842 1.83052 128 128 128
3.60981 -1.30468 2.11043 128 128 128
3.63611 -1.32771 2.0997 128 128 128
2.89968 -1.40547 2.01837 128 128 128
2.90555 -1.41386 1.94792 128 128 128
3.19884 -1.02513 1.66002 128 128 128
3.08244 -0.879374 0.404431 128 128 128
2.78941 -2.42572 2.05731 128 128 128
3.24288 -1.04047 1.54894 128 128 128
2.92977 -0.987679 0.774481 128 128 128
2.56125 -2.34214 2.0187 128 128 128
3.04319 -0.993627 1.50317 128 128 128
3.14679 -1.06692 1.81626 128 128 128
2.35706 -0.774482 1.88599 128 128 128
-0.648694 -0.609115 -0.74047 128 128 128
-0.863955 -0.427185 1.6482 128 128 128
-0.474262 -0.160172 1.16937 128 128 128
4.39204 -2.95663 1.56635 128 128 128
4.53396 -1.49963 1.48221 128 128 128
4.453 -1.42095 1.31327 128 128 128
4.00321 -2.79445 2.00826 128 128 128
4.38291 -1.38742 1.58911 128 128 128
4.48779 -1.49932 1.91819 128 128 128
4.18334 -1.38308 0.836238 128 128 128
4.1751 -1.37245 0.933666 128 128 128
4.17545 -1.38015 0.774035 128 128 128
4.16433 -1.3866 1.07417 128 128 128
4.1412 -1.37401 1.13483 128 128 128
4.13914 -1.44582 0.879976 128 128 128
4.16781 -1.47147 0.90404 128 128 128
4.11641 -1.46179 0.754889 128 128 128
3.1357 -2.60102 1.61867 128 128 128
4.09083 -1.43767 0.703611 128 128 128
3.99011 -1.34135 1.1042 128 128 128
3.89547 -1.91694 2.03865 128 128 128
4.13609 -1.41976 0.811417 128 128 128
4.25006 -1.35197 1.36314 128 128 128
4.04674 -1.21183 1.35313 128 128 128
-0.836461 -0.564107 1.23516 128 128 128
3.13459 -0.877512 0.479889 128 128 128
2.74382 -0.928239 0.312405 128 128 128
2.98616 -1.11025 1.84872 128 128 128
-0.831489 -1.48871 1.22169 128 128 128
-0.0400424 -0.290422 1.37515 128 128 128
-0.0780758 -0.243725 1.50816 128 128 128
4.13692 -1.31336 1.05443 128 128 128
4.09434 -1.39158 0.839399 128 128 128
3.52543 -1.11039 1.85194 128 128 128
3.04555 -1.00429 1.49709 128 128 128
2.0373 -2.1065 2.08766 128 128 128
1.70502 -2.05087 2.03671 128 128 128
0.462861 -1.77008 0.790672 128 128 128
-0.277907 -0.95498 0.935436 128 128 128
-0.230543 -0.724959 0.497683 128 128 128
-0.880371 -1.29879 -0.763324 128 128 128
-0.684897 -0.57394 -0.766467 128 128 128
-0.116907 -0.424403 1.37049 128 128 128
-0.721928 -1.30099 1.71114 128 128 128
2.99898 -1.4711 1.85375 128 128 128
3.70909 -1.20314 0.392726 128 128 128
2.36635 -2.31832 2.07643 128 128 128
2.44207 -2.21566 2.02174 128 128 128
2.38145 -2.20987 2.06231 128 128 128
2.80874 -1.03653 1.00232 128 128 128
1.85711 -2.05158 2.13865 128 128 128
1.5651 -1.96303 2.07081 128 128 128
3.17145 -0.992778 0.508248 128 128 128
2.99772 -1.50131 1.95245 128 128 128
3.09211 -0.838236 0.502177 128 128 128
3.1657 -0.986773 0.505184 128 128 128
3.01118 -1.42889 1.87415 128 128 128
3.11586 -0.929379 0.472154 128 128 128
3.92282 -1.30929 1.09593 128 128 128
3.49508 -1.65383 1.9142 128 128 128
3.28601 -1.07327 1.58771 128 128 128
2.87142 -2.42179 2.07544 128 128 128
2.85625 -2.41215 2.06703 128 128 128
2.81692 -1.03452 1.00632 128 128 128
2.6607 -0.942864 2.12389 128 128 128
2.43598 -0.907927 1.39313 128 128 128
2.33702 -0.881002 2.11501 128 128 128
2.23156 -0.895346 2.12925 128 128 128
2.34472 -0.814111 2.1049 128 128 128
1.94385 -0.75907 2.12174 128 128 128
1.92163 -0.751458 2.12797 128 128 128
1.85453 -0.827614 2.09816 128 128 128
1.07807 -2.11597 1.8992 128 128 128
1.117 -0.61655 2.02694 128 128 128
-0.128045 -1.65093 1.2954 128 128 128
-0.25197 -0.536372 1.39203 128 128 128
-0.259356 0.188145 1.91193 128 128 128
3.95879 -1.32331 1.07555 128 128 128
3.15796 -0.889554 0.504894 128 128 128
1.1645 -1.78956 2.09885 128 128 128
0.596006 -1.68531 2.11406 128 128 128
0.316317 -1.75465 0.884223 128 128 128
-0.32637 -1.49865 1.5801 128 128 128
-0.176849 -0.602097 1.49331 128 128 128
-0.178729 -0.597826 1.31751 128 128 128
0.14793 0.594065 1.02192 128 128 128
2.75398 -1.02902 2.08654 128 128 128
2.11072 -2.22278 1.97925 128 128 128
2.29414 -0.915109 2.14161 128 128 128
2.29303 -0.752765 2.13054 128 128 128
1.59794 -2.01816 2.04039 128 128 128
1.40032 -2.02265 1.49894 128 128 128
1.07993 -1.7645 2.12752 128 128 128
1.19471 -1.84933 2.05856 128 128 128
0.365265 -1.76456 0.905096 128 128 128
-0.0708376 0.0175696 1.77553 128 128 128
0.910266 -0.562977 2.08029 128 128 128
-0.165287 -0.167781 1.87229 128 128 128
0.249024 0.531807 1.37719 128 128 128
-0.0373423 -0.133051 1.39818 128 128 128
3.00198 -1.0007 1.18932 128 128 128
2.85406 -1.00091 0.995136 128 128 128
2.79034 -0.971148 0.765955 128 128 128
2.8475 -0.990944 1.00721 128 128 128
2.32932 -0.788335 -0.532412 128 128 128
2.34452 -0.827932 2.09945 128 128 128
-0.540562 -0.544631 1.16645 128 128 128
0.389014 0.390357 0.474927 128 128 128
-0.339574 0.546863 -0.768347 128 128 128
0.181382 0.552897 1.07687 128 128 128
2.71373 -2.3087 2.20198 128 128 128
3.08128 -1.00478 0.358757 128 128 128
2.04644 -2.0959 2.02408 128 128 128
2.22527 -0.88478 2.13509 128 128 128
1.61082 -1.95976 2.03779 128 128 128
1.0378 -1.74849 2.0739 128 128 128
0.96236 -0.471524 2.13871 128 128 128
-0.386676 -1.40286 1.48438 128 128 128
-0.247986 -0.673426 1.12026 128 128 128
-0.364919 0.561536 -0.768781 128 128 128
-0.504772 -0.161003 1.80054 128 128 128
3.29637 -1.10741 1.49238 128 128 128
3.18521 -0.993545 0.525696 128 128 128
3.08774 -0.901249 0.396805 128 128 128
3.1261 -0.938645 0.802535 128 128 128
3.10324 -0.907567 0.854038 128 128 128
3.08292 -0.864946 1.43002 128 128 128
3.12655 -0.908944 1.33204 128 128 128
2.9479 -1.01152 0.771338 128 128 128
2.90657 -0.959557 1.02255 128 128 128
2.84224 -1.04468 0.799578 128 128 128
2.82397 -1.03279 0.980068 128 128 128
2.86727 -0.995416 0.774678 128 128 128
2.76052 -0.994144 1.00524 128 128 128
2.88201 -1.08961 0.792746 128 128 128
2.87158 -1.11996 0.827696 128 128 128
2.85504 -1.10349 0.801738 128 128 128
2.05423 -2.15285 2.04602 128 128 128
1.83012 -2.11652 2.15294 128 128 128
2.30377 -0.744381 1.89339 128 128 128
2.21237 -0.709615 1.96547 128 128 128
2.24269 -0.728318 1.94767 128 128 128
1.64254 -2.03039 2.0625 128 128 128
1.71386 -2.00103 2.0348 128 128 128
-0.212712 1.23953 0.750894 128 128 128
-0.402893 1.41954 0.714054 128 128 128
-0.323703 1.40332 1.33673 128 128 128
3.02511 -1.02968 1.15813 128 128 128
2.8971 -1.11583 0.839865 128 128 128
2.85097 -1.09694 0.836635 128 128 128
2.86072 -1.0875 0.943861 128 128 128
2.85305 -1.08467 0.897801 128 128 128
2.89223 -1.14025 0.812187 128 128 128
2.7611 -0.874488 1.03889 128 128 128
2.52219 -0.647311 0.833159 128 128 128
2.72818 -0.924033 0.314215 128 128 128
1.97484 -2.09085 2.06884 128 128 128
2.29705 -0.795667 2.18833 128 128 128
1.75151 -2.07656 2.02611 128 128 128
1.17678 -1.98141 1.99727 128 128 128
1.45643 -0.711225 2.1252 128 128 128
0.864472 -1.81926 2.00486 128 128 128
0.736217 -1.75637 2.02376 128 128 128
-0.925813 -1.37687 -0.746347 128 128 128
1.08208 -0.66655 2.0126 128 128 128
-0.849898 -1.29712 1.1841 128 128 128
-0.0977283 -0.431532 1.40055 128 128 128
0.66006 0.258165 0.780932 128 128 128
0.448993 0.338443 1.96933 128 128 128
0.314494 0.35903 1.48883 128 128 128
0.167207 0.473563 1.56672 128 128 128
0.127099 0.0761043 1.80015 128 128 128
0.395242 0.731482 0.90628 128 128 128
-0.0744436 1.1368 0.714849 128 128 128
1.34415 -2.04003 2.00917 128 128 128
-0.132641 -0.398875 1.51017 128 128 128
0.16515 0.581816 0.748429 128 128 128
0.103748 0.881877 1.20207 128 128 128
2.88617 -1.1197 0.888964 128 128 128
2.60433 -0.946089 0.283954 128 128 128
0.525921 -1.7375 2.16928 128 128 128
3.08311 -0.88882 0.399005 128 128 128
-2.41865 -0.954763 2.3942 128 128 128
-0.637726 1.69965 0.12579 128 128 128
-0.54864 1.89936 0.670161 128 128 128
-1.60348 3.98243 1.78572 128 128 128
-1.09144 2.51333 1.30359 128 128 128
-0.513063 -0.0676454 1.80279 128 128 128
-0.239345 1.28669 0.85538 128 128 128
-1.01067 1.73632 1.25579 128 128 128
-1.64953 2.85646 1.37437 128 128 128
-0.550402 1.60194 0.139863 128 128 128
-0.573244 2.57246 1.03366 128 128 128
1.05596 -1.90733 0.845924 128 128 128
0.966012 -1.90195 0.766839 128 128 128
1.01502 -1.90603 0.999849 128 128 128
-0.831087 -0.590279 0.204639 128 128 128
1.00502 1.59515 0.356066 128 128 128
0.844994 1.55629 0.753494 128 128 128
0.690915 1.23946 -0.412531 128 128 128
0.389478 1.51083 0.457624 128 128 128
1.0472 1.56457 0.37843 128 128 128
-0.138109 -0.550569 1.405 128 128 128
0.438478 1.68901 0.652006 128 128 128
0.400881 1.26657 -0.0937991 128 128 128
-0.663506 -0.517474 1.78615 128 128 128
0.676739 1.65262 0.378996 128 128 128
1.01578 1.39158 0.716695 128 128 128
0.812254 1.74988 0.341324 128 128 128
-0.316471 0.600485 1.77389 128 128 128
0.655849 2.06215 -0.427333 128 128 128
0.581704 2.03241 -0.645637 128 128 128
0.757806 1.78363 -0.329082 128 128 128
0.2281 2.23178 1.98022 128 128 128
-0.541288 0.872718 0.888089 128 128 128
-0.677178 1.87528 1.48122 128 128 128
1.28179 -0.708202 2.0991 128 128 128
-0.16337 -1.64767 1.28874 128 128 128
0.0544356 -1.57552 1.7753 128 128 128
-0.511977 -1.387 1.7673 128 128 128
-0.934222 -1.37222 -0.764835 128 128 128
-0.135852 -0.199023 1.84544 128 128 128
-0.217109 -0.720167 1.18094 128 128 128
0.00752793 -0.159336 1.43846 128 128 128
0.859805 1.25931 0.668571 128 128 128
0.697845 1.49739 0.179074 128 128 128
0.83851 1.23619 0.186236 128 128 128
0.715841 1.21775 0.834301 128 128 128
0.658879 1.29791 1.04065 128 128 128
-0.0205158 1.1622 2.20642 128 128 128
0.902447 0.771361 0.953421 128 128 128
1.00777 0.783111 0.726019 128 128 128
-0.113283 -0.622911 1.48123 128 128 128
-0.178679 -0.646601 1.5227 128 128 128
-0.0985006 -0.421753 1.35214 128 128 128
0.626905 1.51564 -0.568748 128 128 128
-0.00565317 -0.256023 1.68031 128 128 128
-0.165526 -0.653773 2.06649 128 128 128
0.654886 1.36094 0.999951 128 128 128
-0.0826217 -0.407833 1.48067 128 128 128
-0.359206 0.602717 1.79901 128 128 128
0.726308 1.68437 -0.509295 128 128 128
-0.380554 2.56136 1.74908 128 128 128
-0.476645 1.68955 0.701938 128 128 128
0.931229 1.06818 0.668819 128 128 128
-0.239148 -0.886003 0.965945 128 128 128
0.873925 -1.98877 2.08209 128 128 128
1.16078 -1.78947 2.09268 128 128 128
1.20325 0.719886 1.81143 128 128 128
0.710285 1.20952 -0.579867 128 128 128
0.896673 -1.88583 0.732147 128 128 128
1.17041 1.64426 0.308001 128 128 128
0.92411 1.94986 0.280216 128 128 128
0.240424 -0.294829 2.16758 128 128 128
0.00818815 -0.153921 1.43842 128 128 128
0.298829 0.99544 0.716653 128 128 128
0.907044 1.69291 0.708315 128 128 128
0.87606 2.47707 -0.0584822 128 128 128
0.944932 1.6574 0.767735 128 128 128
1.10799 1.70031 -0.192729 128 128 128
0.928395 1.41139 0.620115 128 128 128
0.757208 1.36738 0.388891 128 128 128
0.564338 1.89978 -0.515481 128 128 128
0.764261 1.5898 0.125482 128 128 128
0.648477 1.77593 0.344952 128 128 128
0.668067 1.81283 0.150662 128 128 128
1.06219 1.72166 0.410171 128 128 128
0.555531 1.95302 0.306141 128 128 128
1.11797 1.45818 0.431376 128 128 128
0.204914 0.487351 2.06425 128 128 128
0.822588 1.66777 0.925786 128 128 128
0.768582 2.35856 0.323796 128 128 128
0.360329 1.66896 0.632086 128 128 128
0.90544 2.26316 0.566852 128 128 128
0.380179 1.33221 -0.209932 128 128 128
0.0633487 1.82164 -0.349948 128 128 128
-0.225509 2.13557 -0.550087 128 128 128
0.602847 3.31618 2.04951 128 128 128
0.00519111 4.73473 1.84058 128 128 128
1.01632 1.38213 0.454235 128 128 128
0.88826 2.15434 0.211621 128 128 128
0.684016 1.266 0.866996 128 128 128
-0.524735 -1.46254 1.84718 128 128 128
-0.670546 -0.509964 -0.771929 128 128 128
0.0674585 -1.54373 2.05832 128 128 128
0.555242 1.89312 0.29504 128 128 128
0.548011 1.99179 0.332357 128 128 128
0.474158 1.42756 1.01318 128 128 128
0.377125 1.34068 -0.404444 128 128 128
-0.269805 -0.960192 0.92553 128 128 128
1.02313 -1.90389 0.723641 128 128 128
-0.184585 -0.696006 1.22882 128 128 128
-0.344142 -1.48609 1.68261 128 128 128
-0.0101261 -0.217674 1.71142 128 128 128
0.21278 -0.291752 2.16189 128 128 128
0.723571 1.78207 0.843075 128 128 128
0.69055 0.265785 2.10948 128 128 128
0.0436588 1.68612 -0.411522 128 128 128
0.133003 1.5226 -0.359838 128 128 128
0.809604 2.6774 1.85858 128 128 128
-0.466369 1.55935 1.20136 128 128 128
-1.67837 2.94889 1.3267 128 128 128
0.079681 1.77218 1.96948 128 128 128
-0.0908265 4.29977 2.21 128 128 128
0.823086 -0.483125 2.14894 128 128 128
-0.392817 -1.39941 -0.505474 128 128 128
0.540784 1.66933 -0.614831 128 128 128
-0.204289 -0.703183 0.485786 128 128 128
-0.223769 -0.908005 1.19592 128 128 128
-0.103049 -0.429917 1.40862 128 128 128
1.02589 1.19895 0.577358 128 128 128
-0.259246 -0.716731 1.18442 128 128 128
-0.0138288 -0.228559 1.46005 128 128 128
0.315193 0.010721 2.07027 128 128 128
0.968713 -1.90016 0.792749 128 128 128
0.778666 1.0538 -0.47228 128 128 128
0.815635 1.11512 -0.150891 128 128 128
0.710195 1.17053 -0.378925 128 128 128
1.05791 1.61439 0.249807 128 128 128
0.961749 1.70057 0.342723 128 128 128
0.78121 1.32179 0.385047 128 128 128
-0.219337 -0.806019 1.09011 128 128 128
-0.205642 -0.714045 0.939705 128 128 128
0.290253 0.0456356 2.10696 128 128 128
-0.442094 0.361918 2.75632 128 128 128
-0.194046 -0.911776 1.23536 128 128 128
1.04088 1.87969 0.0432117 128 128 128
0.856358 2.5404 -0.0572907 128 128 128
0.981982 2.11578 0.0163429 128 128 128
0.047299 -0.211516 2.26631 128 128 128
-0.0668333 -0.216775 2.11371 128 128 128
1.01914 2.60418 -0.451211 128 128 128
0.803611 1.69085 0.907555 128 128 128
0.706439 1.99699 0.940724 128 128 128
0.149747 1.54895 -0.370974 128 128 128
0.733886 3.62115 0.0901895 128 128 128
0.653579 1.65933 0.10364 128 128 128
-0.0165819 -0.213324 2.07 128 128 128
0.528805 1.31715 0.865499 128 128 128
0.626669 0.375243 2.16626 128 128 128
0.903577 1.82908 -0.570586 128 128 128
0.456937 1.46071 0.871691 128 128 128
0.150595 0.528511 2.09298 128 128 128
0.517946 2.43548 -0.54252 128 128 128
0.183468 1.82084 0.865447 128 128 128
0.922436 2.18822 0.537436 128 128 128
0.324668 2.94337 -0.691464 128 128 128
0.209683 1.39682 0.664703 128 128 128
0.203003 1.38954 0.653722 128 128 128
0.184427 1.43951 0.66256 128 128 128
0.16539 1.70971 -0.53717 128 128 128
-0.0623941 1.9293 -0.615649 128 128 128
0.877222 3.3818 -0.453753 128 128 128
0.837202 2.46248 0.556908 128 128 128
-0.235726 2.20316 -0.517932 128 128 128
-0.138664 1.79976 -0.466153 128 128 128
-0.0995783 1.73011 -0.442672 128 128 128
0.870892 3.13617 -0.118927 128 128 128
0.193888 1.64749 0.98639 128 128 128
0.738671 1.70734 -0.510792 128 128 128
-0.364143 1.56262 0.585885 128 128 128
0.317913 3.04249 1.00721 128 128 128
0.0969458 1.61496 0.975769 128 128 128
0.940061 2.23016 2.19853 128 128 128
0.0361009 1.59221 0.816156 128 128 128
0.850714 3.63039 0.621316 128 128 128
0.107636 6.15455 1.48454 128 128 128
0.16737 6.17709 2.07256 128 128 128
0.469362 5.04897 1.89438 128 128 128
0.189674 6.16418 1.68725 128 128 128
-0.245806 5.38512 2.20083 128 128 128
0.202097 4.91646 1.99494 128 128 128
-2.32746 6.32757 2.70892 128 128 128
0.738286 3.62 0.109444 128 128 128
0.500648 2.39594 -0.302612 128 128 128
0.534775 2.2918 -0.254207 128 128 128
0.520851 2.33686 -0.269912 128 128 128
0.80708 3.3512 0.137117 128 128 128
0.690212 1.91756 0.601942 128 128 128
0.0328878 1.6188 0.47041 128 128 128
0.1256 1.56076 0.658984 128 128 128
0.773096 3.32031 0.481515 128 128 128
-0.426352 1.49834 0.493163 128 128 128
0.851238 3.02769 0.460455 128 128 128
-0.452911 1.55716 0.723954 128 128 128
-0.626708 1.79961 0.692608 128 128 128
-0.442223 1.51654 0.695878 128 128 128
-0.93793 1.69428 1.21712 128 128 128
-1.15779 3.29761 1.98184 128 128 128
1.25782 0.61489 2.07363 128 128 128
0.675309 -0.0635488 2.0509 128 128 128
-0.231759 -0.71397 1.0528 128 128 128
0.666036 1.35362 0.932773 128 128 128
0.184507 0.452455 1.48048 128 128 128
0.191956 1.54132 0.997272 128 128 128
0.192035 1.59524 1.01679 128 128 128
-0.243119 -0.883696 0.974208 128 128 128
-0.226589 -0.758073 0.464295 128 128 128
1.01607 0.944288 2.2019 128 128 128
0.252707 -0.3043 2.15456 128 128 128
0.412435 -0.0178022 2.10452 128 128 128
-0.0131676 -0.259897 1.58967 128 128 128
0.90941 2.10216 0.199856 128 128 128
0.925849 1.67002 0.708001 128 128 128
0.222128 1.70627 0.844298 128 128 128
0.496761 1.51024 1.05632 128 128 128
0.521511 1.48439 1.0715 128 128 128
0.706522 1.71147 0.185551 128 128 128
-0.438231 2.04832 0.184291 128 128 128
-0.426291 1.58324 -0.515587 128 128 128
-0.196521 1.74203 0.198985 128 128 128
-0.311514 1.84038 0.184153 128 128 128
-0.160942 2.16153 2.11287 128 128 128
0.0166191 3.69844 2.07304 128 128 128
-0.155834 -0.62486 1.49719 128 128 128
0.481159 1.63664 1.08493 128 128 128
0.495983 1.45813 1.04632 128 128 128
-0.452507 1.64489 0.516795 128 128 128
-0.0261471 1.67335 0.865207 128 128 128
-0.204138 -0.709628 1.05614 128 128 128
0.0148427 -0.193647 1.61703 128 128 128
-0.205812 2.57746 1.04562 128 128 128
0.55095 1.94051 2.02785 128 128 128
-0.213345 -0.723159 0.504598 128 128 128
0.00570465 -0.240013 1.63267 128 128 128
0.599412 0.444194 2.1582 128 128 128
0.2471 1.49018 0.871013 128 128 128
0.167315 1.40478 -0.327761 128 128 128
-0.086525 1.61975 0.385446 128 128 128
-0.154761 -0.593814 1.33854 128 128 128
-0.123064 -0.476493 1.41192 128 128 128
-0.21983 -0.753173 0.487373 128 128 128
-0.231708 -0.825231 0.939897 128 128 128
-0.0667825 -0.28424 1.35364 128 128 128
-0.293097 -1.50608 1.60059 128 128 128
-0.238639 -0.718732 0.439631 128 128 128
-0.100776 -0.414385 1.33635 128 128 128
0.183824 0.460024 1.49231 128 128 128
0.123565 1.4608 0.498235 128 128 128
-0.222001 1.82926 -0.524054 128 128 128
-0.0667145 7.15318 1.79042 128 128 128
-0.012223 4.38333 1.73761 128 128 128
-0.264931 -0.935966 1.16668 128 128 128
0.252738 1.70755 -0.776627 128 128 128
0.859643 1.28864 0.692643 128 128 128
0.979218 1.94106 0.747274 128 128 128
-0.079248 1.47765 0.52597 128 128 128
1.09393 1.51381 0.283952 128 128 128
1.09482 1.72356 0.184528 128 128 128
1.15013 1.75475 1.97245 128 128 128
0.178829 2.0532 0.779762 128 128 128
0.342217 1.37001 0.738337 128 128 128
0.484294 1.78647 1.97082 128 128 128
1.46694 2.31626 0.353534 128 128 128
1.71658 3.19131 1.7128 128 128 128
0.906713 3.13031 2.01661 128 128 128
0.910766 2.90294 1.96985 128 128 128
-0.0992869 -0.0486906 1.39178 128 128 128
-0.209399 -0.708012 1.00505 128 128 128
-0.161528 -0.611 1.29041 128 128 128
-0.17245 -0.610079 1.54228 128 128 128
-0.145948 -0.544739 1.33792 128 128 128
-0.108824 -0.504974 1.42781 128 128 128
-0.116855 -0.475489 1.3514 128 128 128
-0.0725153 -0.417229 1.47311 128 128 128
-0.0715501 -0.398823 1.45147 128 128 128
0.0270364 -0.200075 1.63104 128 128 128
0.284131 1.79079 0.74761 128 128 128
0.284906 1.68935 0.772032 128 128 128
-0.377104 1.67678 0.367099 128 128 128
1.1547 1.67302 1.9248 128 128 128
0.539255 2.14655 2.11937 128 128 128
0.387139 3.71181 1.52102 128 128 128
-0.195604 -0.705683 1.0011 128 128 128
-0.112916 -0.534081 1.46462 128 128 128
-0.108783 -0.396229 1.30231 128 128 128
-0.0437263 -0.286871 1.46783 128 128 128
0.00608057 -0.236695 1.49181 128 128 128
-0.390354 7.42904 2.21683 128 128 128
0.0157868 -0.167491 1.48234 128 128 128
0.756835 1.38268 -0.363185 128 128 128
0.936455 1.11114 0.383292 128 128 128
1.41573 2.83663 2.00139 128 128 128
0.191542 1.81116 0.907091 128 128 128
-0.29704 1.84244 0.522485 128 128 128
2.03446 1.43971 2.05216 128 128 128
2.07108 1.5227 2.09947 128 128 128
0.774382 1.23167 -0.30695 128 128 128
0.754031 1.37634 -0.364489 128 128 128
1.75768 3.01589 1.71528 128 128 128
-0.288469 2.31528 0.173414 128 128 128
1.97111 4.10034 0.324815 128 128 128
1.73102 3.11028 1.99294 128 128 128
1.74612 1.69488 2.08523 128 128 128
0.390044 1.43873 -0.390416 128 128 128
0.956933 1.83929 0.719057 128 128 128
2.50771 2.32726 0.752127 128 128 128
0.351081 1.38472 0.746383 128 128 128
2.14882 2.3483 0.940464 128 128 128
2.25543 1.6472 1.93778 128 128 128
1.96777 1.8987 -0.653876 128 128 128
2.15809 2.3164 0.932851 128 128 128
1.08137 1.70291 0.329399 128 128 128
0.16548 1.8632 0.790119 128 128 128
1.82794 1.56645 -0.519152 128 128 128
0.300475 1.8856 -0.387337 128 128 128
-0.0233189 1.51517 -0.337095 128 128 128
-0.0166747 2.09946 1.01082 128 128 128
-0.0305399 1.87358 0.892965 128 128 128
-0.4005 2.93356 0.766282 128 128 128
0.0271658 2.3823 -0.864168 128 128 128
1.65292 2.82318 0.846926 128 128 128
2.3965 2.24056 0.954176 128 128 128
1.64881 3.45273 -0.17464 128 128 128
1.59993 3.63084 -0.274437 128 128 128
1.59337 3.13613 -0.13413 128 128 128
1.52928 2.60274 0.324323 128 128 128
0.363654 3.25407 2.02684 128 128 128
3.2198 1.80264 2.46367 128 128 128
2.55538 1.74053 0.836967 128 128 128
2.67272 1.71688 1.35984 128 128 128
-0.627365 4.67886 2.46467 128 128 128
3.47463 2.32286 2.66352 128 128 128
2.99272 6.04753 3.26289 128 128 128
0.179327 7.17522 2.14596 128 128 128
1.76136 6.39591 2.05434 128 128 128
2.2917 5.86011 1.38499 128 128 128
0.182231 0.555519 0.73806 128 128 128
0.93683 1.47043 0.357712 128 128 128
0.372259 1.50448 -0.32459 128 128 128
0.144515 1.4684 -0.368168 128 128 128
2.37468 1.12303 -0.347442 128 128 128
2.36497 1.11514 -0.339251 128 128 128
0.0365606 1.83694 -0.525109 128 128 128
0.301341 1.95143 -0.42237 128 128 128
-0.140159 2.00139 -0.595171 128 128 128
0.135987 2.05268 0.856837 128 128 128
0.504401 1.81356 1.97293 128 128 128
1.09626 2.17412 0.372813 128 128 128
1.62986 1.41168 1.96564 128 128 128
1.01847 1.63277 0.429961 128 128 128
0.0451122 2.31072 -0.71275 128 128 128
-0.115302 2.23409 1.00518 128 128 128
2.60054 1.10559 2.01457 128 128 128
1.09182 2.01004 -0.634814 128 128 128
3.22011 2.23014 0.44289 128 128 128
-0.106214 2.32535 1.05174 128 128 128
2.96334 2.30727 1.46481 128 128 128
2.60669 1.31116 2.06396 128 128 128
2.82175 2.06149 0.732373 128 128 128
2.66854 2.14296 2.27423 128 128 128
1.42813 2.48032 0.201548 128 128 128
2.23809 3.89207 0.27456 128 128 128
1.94516 3.97059 1.61735 128 128 128
-0.0332609 4.5598 1.96475 128 128 128
0.131228 9.36813 2.92395 128 128 128
1.65716 8.4106 1.90113 128 128 128
1.7337 8.55566 2.16188 128 128 128
1.90046 2.25116 0.492797 128 128 128
2.06332 2.55962 2.07028 128 128 128
1.22049 4.30919 2.06301 128 128 128
2.15917 4.73987 1.72275 128 128 128
1.81614 4.19992 2.00323 128 128 128
0.265931 5.90742 1.91629 128 128 128
2.23126 6.45928 1.37617 128 128 128
3.41946 11.2526 2.21694 128 128 128
2.22817 1.46206 2.09152 128 128 128
1.78723 2.05153 2.2159 128 128 128
2.84573 1.96548 1.42505 128 128 128
2.03318 2.42561 2.09194 128 128 128
2.63993 2.35259 2.17749 128 128 128
1.43952 2.29208 0.347127 128 128 128
3.21181 2.38641 2.52009 128 128 128
2.8323 2.37541 2.40454 128 128 128
1.983 2.13714 0.676946 128 128 128
2.13303 5.73225 1.28588 128 128 128
42.5601 48.0997 -15.8719 128 128 128
2.26242 0.858862 -0.431043 128 128 128
0.833703 1.69016 -0.548444 128 128 128
2.95697 0.763828 0.52351 128 128 128
0.0899485 2.01123 -0.595876 128 128 128
1.154 2.13777 0.0815806 128 128 128
0.8841 1.15337 0.103293 128 128 128
2.82758 1.33467 0.670918 128 128 128
0.890984 1.13843 0.106588 128 128 128
0.916387 1.2811 -0.0996048 128 128 128
2.27885 1.62324 0.421708 128 128 128
0.76561 1.67173 -0.509177 128 128 128
0.773171 1.81948 -0.601696 128 128 128
2.55885 1.66894 1.63358 128 128 128
2.54337 1.72939 0.731506 128 128 128
5.09093 0.862165 1.35705 128 128 128
2.19173 -0.358609 0.734342 128 128 128
2.97182 0.735798 1.70642 128 128 128
8.69085 4.75035 1.62663 128 128 128
3.68232 1.34811 0.874873 128 128 128
3.81069 1.36084 2.10761 128 128 128
3.48462 2.35305 0.702444 128 128 128
3.35719 1.17996 2.16828 128 128 128
1.87121 2.16792 0.560636 128 128 128
2.60627 0.0460969 0.638011 128 128 128
3.24007 0.300577 1.08027 128 128 128
3.15031 0.31349 1.06193 128 128 128
4.05234 0.719848 1.54331 128 128 128
2.81091 0.25541 1.67742 128 128 128
1.61272 1.20915 0.33968 128 128 128
2.11693 1.84587 1.31949 128 128 128
2.22167 1.61666 -0.72596 128 128 128
2.81591 0.0926113 0.813041 128 128 128
2.76708 0.0720559 0.712492 128 128 128
3.18454 0.423592 1.90053 128 128 128
1.51083 1.03729 -0.25689 128 128 128
1.75199 1.82075 2.21815 128 128 128
2.55269 1.60288 -0.863132 128 128 128
2.7137 1.6165 0.501852 128 128 128
2.5852 1.6307 0.701486 128 128 128
2.24213 3.2714 0.513545 128 128 128
3.82657 3.30248 1.78334 128 128 128
2.98718 3.17408 1.08842 128 128 128
2.07739 2.34627 0.879965 128 128 128
1.74807 3.26569 0.864677 128 128 128
1.84517 3.66381 1.52301 128 128 128
2.89598 -0.55232 0.845497 128 128 128
2.88979 -0.388311 0.986607 128 128 128
2.56012 -0.440701 0.944209 128 128 128
2.89892 -0.341491 0.989985 128 128 128
2.47617 -0.329072 0.907997 128 128 128
2.42776 -0.322639 0.805586 128 128 128
2.51359 -0.268162 1.67053 128 128 128
2.45534 -0.251328 1.5787 128 128 128
2.58415 0.101468 1.59879 128 128 128
1.79467 0.90241 1.60332 128 128 128
2.38204 0.447067 0.739037 128 128 128
2.08117 -0.365089 0.751538 128 128 128
2.93051 0.39101 1.76263 128 128 128
2.01697 1.1908 0.800595 128 128 128
2.87176 0.912721 -0.668128 128 128 128
2.41349 -0.510396 0.940345 128 128 128
2.58876 -0.464624 0.928498 128 128 128
2.6345 -0.0183788 1.70831 128 128 128
2.95691 0.331422 1.80031 128 128 128
2.77219 0.19481 1.14956 128 128 128
2.13681 2.03354 0.697061 128 128 128
2.82379 0.856764 1.81588 128 128 128
2.2608 0.0895389 0.844601 128 128 128
1.93241 0.673124 0.633287 128 128 128
1.92379 -0.791639 0.841588 128 128 128
15.1513 -4.44758 2.30112 128 128 128
1.98843 -0.551223 0.793272 128 128 128
1.9858 -0.54528 0.699346 128 128 128
124.763 -59.6197 2.66318 128 128 128
4.68586 -2.26198 1.1731 128 128 128
2.71997 -1.0869 0.362902 128 128 128
2.11799 -0.868007 0.476976 128 128 128
2.1124 -0.823772 1.24626 128 128 128
2.15731 -0.861724 1.222 128 128 128
2.23553 -0.885856 0.932892 128 128 128
2.17108 -0.854394 0.707784 128 128 128
2.16477 -0.80876 0.631299 128 128 128
2.25636 -0.856402 1.4371 128 128 128
2.23399 -0.856906 1.31403 128 128 128
2.84302 -0.67617 0.484962 128 128 128
3.06761 0.165844 1.20119 128 128 128
4.36226 0.962331 1.37366 128 128 128
4.61925 -2.72249 2.59188 128 128 128
9.15249 -3.69085 0.355259 128 128 128
2.09777 -0.815448 1.22517 128 128 128
3.55762 -2.83995 2.13725 128 128 128
3.74904 -2.99421 2.25999 128 128 128
3.70426 -2.92293 1.50479 128 128 128
3.49509 -2.72911 -0.422398 128 128 128
3.94834 -3.11647 1.57526 128 128 128
4.81679 -1.92272 2.0581 128 128 128
3.28035 -2.26492 0.999547 128 128 128
5.86104 -3.54816 0.875805 128 128 128
6.34429 -3.67818 1.47161 128 128 128
7.73257 -4.01818 0.434976 128 128 128
7.62585 -3.98539 1.90553 128 128 128
7.7406 -4.02379 1.85149 128 128 128
1.97875 -2.44486 1.47526 128 128 128
2.05146 -2.4743 1.48834 128 128 128
2.13705 -2.47924 1.47758 128 128 128
2.56112 -2.66597 1.92659 128 128 128
3.07145 -1.68369 1.86377 128 128 128
3.15233 -1.71813 1.9366 128 128 128
3.25074 -2.94235 1.5757 128 128 128
4.53564 -1.7792 2.16702 128 128 128
3.93885 -1.63434 1.8918 128 128 128
4.22058 -1.73066 2.03367 128 128 128
2.39405 -2.7379 1.62104 128 128 128
2.87837 -1.49627 1.72247 128 128 128
3.1358 -1.67971 1.8144 128 128 128
2.55189 -2.60275 -0.559973 128 128 128
2.3874 -2.50399 1.41559 128 128 128
2.93606 -1.6585 1.63878 128 128 128
3.04649 -1.69708 1.68585 128 128 128
2.82589 -2.62168 2.10823 128 128 128
2.93814 -2.91715 1.63028 128 128 128
3.4207 -3.15232 1.68066 128 128 128
4.52024 -1.62929 1.91931 128 128 128
3.83561 -1.60102 1.81564 128 128 128
4.12485 -1.6802 1.92969 128 128 128
4.15003 -1.62655 1.92906 128 128 128
4.64298 -3.50082 1.71517 128 128 128
4.80856 -1.81189 2.03782 128 128 128
5.03819 -3.41154 1.64481 128 128 128
6.2326 -2.36892 2.00435 128 128 128
8.90689 -3.66445 -1.56938 128 128 128
2.24407 -0.793572 1.41621 128 128 128
2.21104 -0.744263 1.35559 128 128 128
2.25487 -0.723406 0.629 128 128 128
2.25908 -0.625893 0.562644 128 128 128
2.2855 -0.36524 0.726667 128 128 128
2.36013 -0.0814793 0.865119 128 128 128
2.39339 -0.0682337 0.97631 128 128 128
2.34634 -0.366733 0.917998 128 128 128
2.37074 -0.0583198 1.05671 128 128 128
2.39576 -0.348196 0.910423 128 128 128
2.44506 0.105682 1.00667 128 128 128
2.511 0.161571 1.02898 128 128 128
2.98957 0.411525 0.952833 128 128 128
2.53537 0.159633 0.686148 128 128 128
3.0946 -1.68691 1.79654 128 128 128
3.71346 -1.88479 1.86419 128 128 128
3.32661 -2.58057 1.28791 128 128 128
3.70997 -1.67517 0.571748 128 128 128
3.8897 -1.63638 -0.404986 128 128 128
5.3307 -3.60141 1.63489 128 128 128
4.93532 -3.31573 1.90623 128 128 128
3.80776 -2.35187 0.724086 128 128 128
4.02436 -2.49573 0.711846 128 128 128
4.38357 -2.72964 0.970251 128 128 128
4.15096 -2.59641 0.909604 128 128 128
4.26669 -2.54139 -0.11322 128 128 128
5.71513 -3.40663 2.06186 128 128 128
5.34363 -3.28743 1.07433 128 128 128
4.58751 -2.72151 1.61599 128 128 128
4.54336 -2.6724 1.58481 128 128 128
4.83779 -2.70485 1.00753 128 128 128
6.03782 -3.40301 -0.34752 128 128 128
6.24445 -3.34037 -0.301836 128 128 128
5.84324 -2.82392 0.755314 128 128 128
10.0144 -4.66671 0.721885 128 128 128
7.46321 -3.58712 0.506353 128 128 128
7.81111 -3.8018 0.631429 128 128 128
10.4321 -4.67415 2.2533 128 128 128
9.5068 -4.54353 1.90163 128 128 128
2.94376 -2.84458 1.59848 128 128 128
5.25797 -4.23103 2.6826 128 128 128
20.1516 -7.99373 -6.22225 128 128 128
2.19544 -0.959099 0.901842 128 128 128
3.5765 -1.49359 -0.258714 128 128 128
4.6437 -1.87825 2.01588 128 128 128
5.45356 -2.44577 0.616891 128 128 128
2.07718 -2.48295 1.48085 128 128 128
2.14517 -2.49521 1.47888 128 128 128
2.46337 -2.84296 1.67403 128 128 128
2.41078 -2.54166 1.47833 128 128 128
2.56182 -2.60162 -0.597419 128 128 128
2.55867 -2.58898 1.53629 128 128 128
2.55478 -2.6116 -0.586531 128 128 128
2.59006 -1.13092 1.43198 128 128 128
3.15115 -1.32735 1.73255 128 128 128
2.82528 -1.59713 1.85438 128 128 128
2.74005 -2.43449 2.02092 128 128 128
2.78011 -2.56933 2.08177 128 128 128
2.90261 -2.7707 2.15413 128 128 128
3.85438 -1.90784 1.94467 128 128 128
3.21652 -1.70968 1.61523 128 128 128
4.67141 -1.88349 2.05185 128 128 128
4.65353 -1.87565 2.03935 128 128 128
5.01298 -3.17487 2.02744 128 128 128
6.41012 -3.99922 1.68344 128 128 128
6.46736 -3.68098 -0.440372 128 128 128
7.70137 -4.16874 1.93344 128 128 128
7.72177 -4.00815 0.431857 128 128 128
7.49094 -4.06467 1.99043 128 128 128
7.40786 -3.0154 -1.15693 128 128 128
9.41286 -4.65094 1.99069 128 128 128
11.4865 -5.25188 0.760573 128 128 128
9.70039 -4.85398 1.98073 128 128 128
2.28618 -1.00108 1.07465 128 128 128
2.40402 -1.02451 0.840554 128 128 128
1.9448 -2.44798 1.484 128 128 128
3.07381 -1.23326 1.6925 128 128 128
2.98174 -1.22402 1.61748 128 128 128
2.29024 -1.02314 0.817286 128 128 128
10.4769 -4.85713 1.46856 128 128 128
10.9932 -5.04132 1.48266 128 128 128
9.81705 -4.26723 1.25131 128 128 128
2.7686 -1.13869 0.923698 128 128 128
2.71181 -1.55947 1.76979 128 128 128
3.14316 -1.24981 1.73013 128 128 128
7.83959 -3.93218 2.05768 128 128 128
5.97497 -2.23554 1.98391 128 128 128
