ply
format ascii 1.0
element vertex 1270
property float x
property float y
property float z
property uchar red
property uchar green
property uchar blue
end_header
-10.5677 -28.1123 11.9932 128 128 128
-9.51092 -26.5136 14.5923 128 128 128
-10.5313 -28.1137 11.9989 128 128 128
-10.2115 -21.7315 9.01511 128 128 128
-6.42083 -23.7316 14.5444 128 128 128
-11.3409 -23.4208 11.538 128 128 128
-8.81924 -27.5774 12.0648 128 128 128
-10.1449 -27.3685 11.3629 128 128 128
-8.79906 -17.1868 12.3638 128 128 128
-8.24553 -19.9141 12.454 128 128 128
-12.0498 -20.3367 13.2097 128 128 128
-11.6519 -20.9768 12.4269 128 128 128
-11.0067 -27.2976 12.1338 128 128 128
-10.6239 -25.696 14.5974 128 128 128
-10.6575 -26.0297 11.3799 128 128 128
-8.41153 -23.3777 14.6759 128 128 128
-10.074 -25.1278 11.4244 128 128 128
-10.742 -25.2294 11.6419 128 128 128
-11.4254 -26.9001 12.3455 128 128 128
-11.2241 -26.5589 12.1934 128 128 128
-8.26803 -23.3079 14.635 128 128 128
-11.8114 -22.1157 11.755 128 128 128
-10.5751 -22.676 13.143 128 128 128
-11.3461 -26.6228 12.9925 128 128 128
-11.2297 -26.5167 14.5893 128 128 128
-10.1695 -27.2714 11.3927 128 128 128
-10.6227 -27.3117 12.0871 128 128 128
-9.08724 -27.1071 11.4906 128 128 128
-8.579 -27.7824 12.4194 128 128 128
-8.50126 -27.8736 12.4024 128 128 128
-8.45596 -25.2026 14.6114 128 128 128
-11.6295 -24.9965 12.4069 128 128 128
-8.13198 -24.129 14.4231 128 128 128
-10.5218 -24.6854 14.424 128 128 128
-12.3473 -22.3502 14.6638 128 128 128
-6.27121 -20.0251 12.0564 128 128 128
-8.79152 -27.854 12.426 128 128 128
-8.89756 -27.8615 11.9168 128 128 128
-10.6317 -28.057 11.8664 128 128 128
-9.46914 -28.859 12.9016 128 128 128
-9.55883 -24.8845 11.6443 128 128 128
-10.522 -28.0402 12.3085 128 128 128
-10.8704 -28.0956 12.1559 128 128 128
-10.181 -27.7975 12.1095 128 128 128
-11.1407 -28.0442 13.0449 128 128 128
-8.63357 -27.9008 12.4012 128 128 128
-9.9386 -25.088 11.4793 128 128 128
-6.71797 -24.8557 13.805 128 128 128
-10.8501 -20.4628 14.6754 128 128 128
-10.5213 -27.68 12.2071 128 128 128
-11.2607 -27.2162 14.5614 128 128 128
-6.93695 -23.7141 14.6003 128 128 128
-11.2258 -26.5263 14.5904 128 128 128
-8.70794 -21.4689 12.9649 128 128 128
-6.9636 -20.9482 14.6173 128 128 128
-11.5944 -26.237 12.6394 128 128 128
-11.6111 -26.2897 12.5908 128 128 128
-11.4539 -22.8381 11.9323 128 128 128
-10.5274 -21.2857 11.6705 128 128 128
-12.1129 -19.8836 14.9688 128 128 128
-10.6545 -27.922 12.365 128 128 128
-10.6465 -27.9401 12.3659 128 128 128
-9.12867 -27.0551 11.9068 128 128 128
-10.4275 -27.5647 12.2442 128 128 128
-9.10127 -26.9747 11.5096 128 128 128
-10.6067 -27.1217 12.2758 128 128 128
-10.7318 -26.9082 12.2274 128 128 128
-10.3749 -27.0591 14.4931 128 128 128
-6.3168 -23.8331 13.9443 128 128 128
-9.10977 -24.7205 14.5481 128 128 128
-5.74651 -21.9043 14.6549 128 128 128
-6.3373 -23.0765 14.7029 128 128 128
-6.22217 -21.5938 12.883 128 128 128
-9.61064 -24.701 11.3241 128 128 128
-9.53145 -25.1298 12.0305 128 128 128
-8.97175 -27.7998 12.6239 128 128 128
-10.5805 -28.0747 11.9908 128 128 128
-10.5061 -28.1105 12.2146 128 128 128
-9.6774 -24.1884 12.2415 128 128 128
-7.20858 -22.0209 14.7408 128 128 128
-9.05717 -28.894 12.924 128 128 128
-8.83267 -27.7256 12.4007 128 128 128
-10.581 -25.7043 14.585 128 128 128
-10.9352 -21.5398 11.7436 128 128 128
-9.61971 -25.4374 14.6245 128 128 128
-10.9876 -27.2419 14.5173 128 128 128
-11.3822 -24.3519 12.0839 128 128 128
-7.3201 -22.4745 11.5085 128 128 128
-6.17561 -20.7869 13.8912 128 128 128
-9.65578 -21.6964 12.8002 128 128 128
-6.98984 -21.6993 11.8362 128 128 128
-10.0796 -22.0787 9.17864 128 128 128
-6.60867 -24.3838 13.688 128 128 128
-10.729 -26.0703 14.648 128 128 128
-11.3057 -23.0324 14.656 128 128 128
-9.12165 -27.0675 11.9121 128 128 128
-7.20898 -24.9725 14.6205 128 128 128
-11.2202 -26.5758 14.5923 128 128 128
-9.09773 -27.0397 11.7048 128 128 128
-7.61643 -26.1518 14.5543 128 128 128
-11.8712 -25.1847 13.2927 128 128 128
-8.83483 -21.2755 12.9221 128 128 128
-10.2275 -20.8711 14.6578 128 128 128
-11.0351 -28.1901 12.1742 128 128 128
-7.88692 -19.7206 12.9161 128 128 128
-10.1661 -27.2565 11.3883 128 128 128
-9.50764 -25.1352 12.1988 128 128 128
-7.81509 -26.6642 13.7982 128 128 128
-7.87888 -26.849 13.757 128 128 128
-5.823 -22.5884 12.4301 128 128 128
-5.85283 -22.0818 12.522 128 128 128
-6.78989 -24.9737 13.679 128 128 128
-11.5993 -25.7684 13.5476 128 128 128
-9.30685 -24.4396 14.3725 128 128 128
-11.8781 -25.1143 12.2202 128 128 128
-12.1233 -24.2284 14.6554 128 128 128
-11.3048 -24.1278 11.8018 128 128 128
-12.2547 -22.7734 12.673 128 128 128
-11.3849 -21.6757 14.5425 128 128 128
-11.2938 -26.7423 13.3941 128 128 128
-9.05032 -23.0577 12.3555 128 128 128
-10.489 -27.0028 14.5333 128 128 128
-11.8206 -25.733 12.6705 128 128 128
-9.11843 -27.0609 11.6056 128 128 128
-10.2734 -26.8784 11.4057 128 128 128
-10.4023 -27.4844 12.1871 128 128 128
-9.10631 -27.0561 11.5269 128 128 128
-9.38509 -17.7244 12.0512 128 128 128
-10.3732 -24.3455 11.5105 128 128 128
-10.9224 -25.9618 14.5467 128 128 128
-10.7943 -26.291 14.5476 128 128 128
-10.6045 -28.0875 11.9529 128 128 128
-11.2315 -25.1409 14.7015 128 128 128
-8.71894 -19.5992 12.2573 128 128 128
-12.9618 -20.7113 14.682 128 128 128
-7.89519 -19.816 13.3173 128 128 128
-6.43329 -23.2826 14.6417 128 128 128
-5.78142 -22.6213 12.2829 128 128 128
-6.11784 -23.3789 12.0452 128 128 128
-9.73449 -23.9743 9.73313 128 128 128
-6.11802 -20.7922 13.3391 128 128 128
-8.5653 -25.7064 14.5765 128 128 128
-8.01029 -24.3839 14.5127 128 128 128
-8.9109 -27.8703 12.0849 128 128 128
-8.9117 -27.9356 12.3376 128 128 128
-12.2644 -22.7707 12.6664 128 128 128
-7.43944 -19.7354 12.368 128 128 128
-7.03587 -19.9733 12.4165 128 128 128
-6.84147 -21.5429 11.7532 128 128 128
-11.195 -24.2397 14.5632 128 128 128
-6.63333 -19.5514 11.5592 128 128 128
-11.5643 -20.766 11.6142 128 128 128
-6.72228 -19.697 14.9086 128 128 128
-8.90895 -20.8343 8.13062 128 128 128
-6.10791 -21.12 14.4493 128 128 128
-10.2871 -24.6463 11.2837 128 128 128
-8.35919 -19.9077 12.3678 128 128 128
-10.694 -21.5159 12.5996 128 128 128
-9.64746 -25.1264 11.4694 128 128 128
-6.72703 -18.6535 15.0111 128 128 128
-10.1893 -27.8036 12.114 128 128 128
-11.7726 -22.5602 11.6136 128 128 128
-9.38114 -21.9728 14.443 128 128 128
-6.75266 -19.5433 12.354 128 128 128
-10.628 -26.0247 12.1192 128 128 128
-5.86788 -22.1799 14.5883 128 128 128
-8.2581 -25.8701 14.6293 128 128 128
-8.06561 -27.3334 12.2408 128 128 128
-12.4978 -22.5888 14.4155 128 128 128
-9.71105 -21.7199 12.9063 128 128 128
-10.6812 -26.3934 14.5883 128 128 128
-8.78893 -24.3447 12.1732 128 128 128
-9.64961 -21.7113 12.7797 128 128 128
-10.0273 -21.6662 13.2255 128 128 128
-11.9662 -21.186 14.6193 128 128 128
-8.87877 -25.4055 14.5568 128 128 128
-8.80502 -24.4255 12.1938 128 128 128
-6.99635 -19.6255 13.3236 128 128 128
-9.39559 -18.9114 12.4444 128 128 128
-9.33562 -20.1917 12.2728 128 128 128
-6.43572 -22.7318 14.6151 128 128 128
-9.58281 -23.0869 14.6638 128 128 128
-6.14892 -21.7172 12.7798 128 128 128
-5.81529 -22.6216 12.4363 128 128 128
-8.79442 -23.9012 14.6423 128 128 128
-11.0877 -24.8651 12.186 128 128 128
-5.73381 -21.8866 11.5153 128 128 128
-7.22987 -19.6869 12.4031 128 128 128
-7.40835 -19.7011 14.6462 128 128 128
-12.4405 -22.8359 12.639 128 128 128
-10.2154 -25.681 14.6096 128 128 128
-8.08294 -25.0417 14.6148 128 128 128
-10.239 -27.453 11.971 128 128 128
-8.7096 -21.305 13.2042 128 128 128
-9.19462 -20.2126 14.6454 128 128 128
-11.458 -26.7255 12.8596 128 128 128
-10.646 -25.3401 11.4884 128 128 128
-6.19438 -23.9245 14.5346 128 128 128
-11.3107 -26.1978 12.1863 128 128 128
-11.7863 -22.3373 12.2815 128 128 128
-10.3432 -22.3468 14.5425 128 128 128
-8.74425 -21.2847 13.1905 128 128 128
-6.03383 -19.1012 12.1877 128 128 128
-7.75221 -20.1489 14.6803 128 128 128
-9.3332 -20.2812 12.2938 128 128 128
-9.54012 -21.8082 12.893 128 128 128
-12.09 -20.2778 13.2199 128 128 128
-9.35684 -26.5827 14.6442 128 128 128
-11.75 -25.4024 12.1758 128 128 128
-9.39205 -23.6492 14.7033 128 128 128
-8.40244 -22.8802 14.7394 128 128 128
-7.73944 -15.8124 8.87663 128 128 128
-8.5668 -20.9299 9.75835 128 128 128
-11.9067 -23.2672 12.3852 128 128 128
-9.17072 -22.5594 14.6992 128 128 128
-7.41455 -19.5115 10.0316 128 128 128
-7.59827 -23.6689 14.6564 128 128 128
-8.44415 -23.2373 11.8052 128 128 128
-9.88851 -26.781 14.5976 128 128 128
-9.30448 -26.6528 14.596 128 128 128
-10.5632 -26.8181 12.0893 128 128 128
-10.7605 -25.39 14.4591 128 128 128
-8.82007 -27.1986 12.4302 128 128 128
-6.7858 -23.9513 14.6144 128 128 128
-10.5656 -26.2532 14.5325 128 128 128
-6.75084 -19.5117 13.0893 128 128 128
-9.12002 -24.8164 14.5588 128 128 128
-11.1413 -24.9367 14.5432 128 128 128
-8.25475 -23.1707 12.1098 128 128 128
-10.6114 -25.8092 14.645 128 128 128
-7.43253 -19.7207 13.1176 128 128 128
-8.45922 -20.2795 14.6825 128 128 128
-6.03762 -22.2696 12.6428 128 128 128
-8.81339 -24.4464 11.862 128 128 128
-9.9396 -24.4482 14.6243 128 128 128
-12.0574 -24.5221 13.2549 128 128 128
-11.2075 -24.2326 14.5511 128 128 128
-11.5566 -23.6961 12.0502 128 128 128
-11.9692 -23.2041 12.3838 128 128 128
-8.06456 -27.3504 12.3011 128 128 128
-8.96392 -21.3051 12.5555 128 128 128
-12.2956 -22.7395 12.6705 128 128 128
-12.0132 -21.0352 14.6329 128 128 128
-7.34961 -19.5744 9.99874 128 128 128
-10.8815 -26.0747 14.5012 128 128 128
-6.64289 -24.6479 13.7815 128 128 128
-5.48456 -23.7252 13.5487 128 128 128
-11.0797 -27.0448 14.5928 128 128 128
-7.50851 -26.2478 14.4904 128 128 128
-8.84871 -21.0915 10.2226 128 128 128
-7.44288 -19.6943 12.5707 128 128 128
-8.17539 -26.3576 14.5954 128 128 128
-9.64933 -25.5713 14.6231 128 128 128
-7.89574 -24.0666 14.4193 128 128 128
-11.2735 -24.7504 12.1665 128 128 128
-11.7143 -25.2112 13.588 128 128 128
-8.20917 -23.7198 14.6331 128 128 128
-6.32027 -25.1648 14.5863 128 128 128
-11.5877 -21.8855 14.6706 128 128 128
-9.19117 -20.2445 10.1271 128 128 128
-11.7477 -21.1479 12.7352 128 128 128
-9.39128 -20.2362 12.3031 128 128 128
-6.55786 -19.4182 14.6743 128 128 128
-8.22381 -23.2083 14.5724 128 128 128
-8.19864 -23.0073 14.6671 128 128 128
-7.17068 -27.2039 12.3159 128 128 128
-5.90112 -25.1717 14.6056 128 128 128
-7.53021 -26.7844 11.4845 128 128 128
-7.54146 -26.7665 11.4689 128 128 128
-7.29152 -26.7204 11.4849 128 128 128
-7.08427 -19.985 9.996 128 128 128
-7.09313 -20.4895 10.1514 128 128 128
-9.17388 -24.1232 12.1635 128 128 128
-8.02259 -23.6587 14.5688 128 128 128
-7.0301 -25.901 12.4555 128 128 128
-5.47499 -23.6835 13.7739 128 128 128
-10.6365 -20.3935 12.4518 128 128 128
-6.45694 -22.7801 14.5971 128 128 128
-6.13048 -20.7628 12.5498 128 128 128
-7.05817 -20.4661 10.091 128 128 128
-8.21292 -27.3723 12.3143 128 128 128
-11.1313 -26.7486 14.5335 128 128 128
-10.9494 -19.1268 12.0321 128 128 128
-5.14611 -23.4585 13.634 128 128 128
-9.46211 -21.5006 14.6347 128 128 128
-6.15 -19.5965 12.758 128 128 128
-10.1407 -21.3454 10.1375 128 128 128
-11.5154 -25.8862 14.704 128 128 128
-5.93223 -25.1477 14.6002 128 128 128
-12.7326 -21.2888 12.7034 128 128 128
-11.0762 -23.8662 14.6231 128 128 128
-9.68234 -25.1757 14.5956 128 128 128
-11.5231 -25.4152 13.448 128 128 128
-8.42252 -23.4959 11.8367 128 128 128
-11.918 -22.6619 12.0908 128 128 128
-9.62924 -21.7736 12.7803 128 128 128
-9.81368 -21.6476 13.2784 128 128 128
-11.9906 -22.6729 12.1667 128 128 128
-9.76271 -21.8703 12.5959 128 128 128
-6.24291 -23.5144 14.4366 128 128 128
-10.4934 -24.754 14.3881 128 128 128
-10.6612 -21.7392 14.6442 128 128 128
-11.3985 -22.8256 12.316 128 128 128
-9.74109 -21.8618 12.5915 128 128 128
-8.83048 -20.0032 12.0928 128 128 128
-11.7935 -21.3262 12.3843 128 128 128
-7.20295 -26.6076 11.4364 128 128 128
-11.5814 -25.7635 12.967 128 128 128
-5.20514 -23.5603 13.6193 128 128 128
-6.68396 -24.7318 14.6248 128 128 128
-2.82497 -19.0112 14.5778 128 128 128
-7.19016 -19.6322 13.0876 128 128 128
-8.88599 -21.017 14.5233 128 128 128
-9.32343 -23.6631 11.8949 128 128 128
-7.84568 -25.3794 14.6292 128 128 128
-10.0325 -23.7441 14.6224 128 128 128
-10.0358 -23.7038 14.6264 128 128 128
-9.60678 -21.9215 13.9556 128 128 128
-8.80249 -21.6415 10.459 128 128 128
-8.24601 -22.6246 11.9042 128 128 128
-9.23303 -24.9396 12.3187 128 128 128
-11.9815 -25.0498 13.5332 128 128 128
-11.9426 -24.6706 12.4615 128 128 128
-5.91843 -21.777 13.2043 128 128 128
-11.1215 -24.8349 12.1862 128 128 128
-8.87195 -25.9859 14.5555 128 128 128
-7.28392 -26.7293 11.4914 128 128 128
-7.20651 -26.6071 11.4362 128 128 128
-9.28465 -26.7681 14.5601 128 128 128
-7.82343 -18.8531 13.116 128 128 128
-6.82588 -27.1819 12.2758 128 128 128
-9.18768 -19.8869 10.021 128 128 128
-7.81254 -19.1318 13.1238 128 128 128
-8.5289 -21.991 12.1771 128 128 128
-2.7782 -18.8936 14.5837 128 128 128
-6.97457 -21.6462 14.5586 128 128 128
-10.2883 -19.9212 12.1198 128 128 128
-8.81854 -21.0193 10.1438 128 128 128
-11.2104 -26.2633 12.2365 128 128 128
-5.42487 -23.7754 13.6723 128 128 128
-9.02471 -24.6502 12.1118 128 128 128
-8.20665 -27.3738 12.3145 128 128 128
-6.85484 -26.6843 11.524 128 128 128
-8.81482 -26.5431 14.5633 128 128 128
-8.78212 -24.2686 12.1686 128 128 128
-8.65994 -26.5287 14.5341 128 128 128
-6.58584 -18.6736 14.8259 128 128 128
-7.14421 -25.3449 14.6402 128 128 128
-7.12713 -25.5099 14.5917 128 128 128
-11.3601 -24.0934 14.5763 128 128 128
-8.43821 -23.3117 11.8069 128 128 128
-10.5071 -22.8339 14.6057 128 128 128
-5.29069 -24.5815 12.4052 128 128 128
-6.1048 -25.092 14.5222 128 128 128
-9.19857 -25.6139 14.2811 128 128 128
-11.9887 -21.7279 10.0872 128 128 128
-12.0263 -20.9138 10.1101 128 128 128
-12.1625 -20.7711 10.0716 128 128 128
-5.19255 -24.6365 13.6662 128 128 128
-6.18987 -25.0549 14.5863 128 128 128
-8.2079 -24.5412 14.625 128 128 128
-11.5055 -23.8011 14.5414 128 128 128
-12.0554 -24.5253 12.9557 128 128 128
-11.2424 -24.0381 14.4439 128 128 128
-10.2585 -24.6782 14.428 128 128 128
-11.3008 -26.1826 12.2275 128 128 128
-12.0236 -25.6664 12.1351 128 128 128
-6.16797 -24.3838 14.7347 128 128 128
-8.08162 -24.9514 14.6559 128 128 128
-5.20631 -24.6864 12.8968 128 128 128
-5.20004 -24.6603 12.8835 128 128 128
-5.17682 -24.6046 13.6663 128 128 128
-7.89237 -28.024 12.31 128 128 128
-10.1885 -18.0008 11.8974 128 128 128
-10.3556 -20.3541 14.7127 128 128 128
-10.1396 -20.6595 10.181 128 128 128
-3.04141 -19.4439 14.4586 128 128 128
-5.41918 -23.7772 12.4528 128 128 128
-10.146 -21.7484 12.5947 128 128 128
-5.85533 -25.8777 12.0652 128 128 128
-5.86773 -25.8341 12.3135 128 128 128
-7.01301 -26.0131 14.6063 128 128 128
-7.62954 -25.5585 14.5939 128 128 128
-8.66726 -22.2954 14.598 128 128 128
-7.25602 -22.9532 14.6156 128 128 128
-7.24175 -22.0247 14.6257 128 128 128
-12.0273 -20.8815 10.1145 128 128 128
-12.0069 -21.6947 10.0788 128 128 128
-5.89857 -22.2126 14.4898 128 128 128
-11.0345 -22.4467 14.6032 128 128 128
-9.42848 -21.8812 14.4694 128 128 128
-8.99154 -24.7619 14.6263 128 128 128
-6.9422 -23.954 14.6056 128 128 128
-9.41287 -23.4671 11.8635 128 128 128
-10.0114 -23.85 11.843 128 128 128
-8.33362 -26.8611 11.4113 128 128 128
-8.33676 -26.8551 11.4111 128 128 128
-7.00049 -27.1897 12.4817 128 128 128
-24.9887 11.4869 3.8089 128 128 128
-6.78642 -27.1829 12.2669 128 128 128
-8.3805 -26.953 11.4525 128 128 128
-7.7925 -24.4292 14.6542 128 128 128
-12.0278 -24.5188 13.2439 128 128 128
-12.9055 -21.4868 14.7214 128 128 128
-6.59574 -19.5448 13.0905 128 128 128
-12.7342 -21.8224 12.8591 128 128 128
-11.7033 -21.4807 12.3755 128 128 128
-5.73613 -25.6264 12.0149 128 128 128
-8.33015 -26.9867 11.4771 128 128 128
-6.84982 -27.0942 12.4068 128 128 128
-7.05216 -27.1919 12.5633 128 128 128
-7.05346 -27.184 12.5636 128 128 128
-5.86478 -25.0697 14.5442 128 128 128
-10.1696 -20.5051 12.1574 128 128 128
-7.41164 -26.2958 14.4942 128 128 128
-7.05224 -27.137 12.5783 128 128 128
-5.70103 -25.3189 14.3449 128 128 128
-12.8 -21.3926 12.5695 128 128 128
-10.1592 -21.3269 10.118 128 128 128
-10.2365 -21.6238 12.5775 128 128 128
-11.7878 -21.9259 10.2042 128 128 128
-10.0695 -20.6942 12.1374 128 128 128
-8.86057 -25.2569 14.6129 128 128 128
-5.51035 -23.8207 13.5255 128 128 128
-7.11688 -26.8287 11.5082 128 128 128
-5.18014 -24.3356 13.7227 128 128 128
-8.73463 -27.6802 12.373 128 128 128
-5.74076 -26.1753 11.606 128 128 128
-5.78223 -26.0559 12.2877 128 128 128
-9.17334 -20.3815 10.153 128 128 128
-8.539 -19.5018 11.4592 128 128 128
-5.16045 -23.4967 13.6307 128 128 128
-9.69591 -20.6959 14.6712 128 128 128
-8.80501 -23.9102 14.6399 128 128 128
-8.1965 -23.7329 14.3681 128 128 128
-2.77784 -20.3377 13.8975 128 128 128
-7.84583 -21.9641 13.4898 128 128 128
-8.20835 -27.379 12.3161 128 128 128
-5.86341 -25.725 11.6443 128 128 128
-5.30128 -24.9586 12.54 128 128 128
-5.80738 -26.0714 11.6769 128 128 128
-5.78733 -26.0813 12.3064 128 128 128
1.53302 -3.46734 7.52119 128 128 128
-7.90616 -27.9896 12.3155 128 128 128
-9.61861 -25.537 14.6165 128 128 128
-5.43332 -23.6728 13.5725 128 128 128
-10.6196 -24.4997 14.4897 128 128 128
-6.52778 -27.4228 12.0006 128 128 128
-6.52539 -27.4152 11.9946 128 128 128
-6.77873 -27.1888 12.2676 128 128 128
-6.81339 -27.2421 12.2842 128 128 128
-8.2601 -27.3364 12.3058 128 128 128
-11.6335 -22.7305 11.8896 128 128 128
-12.3224 -20.5911 9.9959 128 128 128
-2.33715 -18.964 14.652 128 128 128
-9.64922 -26.8936 14.4148 128 128 128
-5.53793 -25.8845 11.7706 128 128 128
-5.12215 -25.0998 12.5724 128 128 128
-10.5048 -26.1357 14.6111 128 128 128
-5.02825 -22.9599 13.5105 128 128 128
-5.50609 -25.7898 11.7307 128 128 128
-6.31048 -25.8521 14.5607 128 128 128
-5.50783 -25.7381 11.7683 128 128 128
-5.74523 -26.1632 11.6052 128 128 128
-5.79869 -26.0649 11.6409 128 128 128
-5.79961 -26.0184 11.6768 128 128 128
-8.63376 -26.7615 14.3832 128 128 128
-8.7539 -24.3501 12.1737 128 128 128
-11.1592 -24.1911 14.6563 128 128 128
-7.01357 -21.8381 14.6244 128 128 128
-9.87274 -21.4496 12.5978 128 128 128
-11.8819 -23.581 12.5282 128 128 128
-7.16132 -27.0774 12.4386 128 128 128
-5.76263 -26.1979 11.4835 128 128 128
-6.52148 -27.4172 11.9914 128 128 128
-6.52198 -27.3889 11.9759 128 128 128
-6.89607 -26.6459 11.4023 128 128 128
-5.12513 -25.0684 12.7025 128 128 128
-6.68087 -24.5353 14.3971 128 128 128
-12.5176 -22.6374 14.2538 128 128 128
-9.394 -22.2717 12.306 128 128 128
-11.0732 -20.8239 12.3662 128 128 128
-12.5677 -22.0442 12.13 128 128 128
-11.9864 -25.0401 13.5383 128 128 128
-5.78996 -23.2885 11.997 128 128 128
-6.13455 -23.3546 12.0983 128 128 128
-7.84333 -21.9928 13.4881 128 128 128
-11.8132 -23.3048 12.0445 128 128 128
-10.0265 -20.9309 12.4474 128 128 128
-0.241804 -14.5367 14.7522 128 128 128
-9.58202 -24.9526 12.1764 128 128 128
-5.25384 -23.7036 13.8691 128 128 128
-6.13647 -23.3607 11.993 128 128 128
-5.22907 -24.2849 13.6031 128 128 128
-8.89415 -23.2849 14.6514 128 128 128
-11.3448 -22.735 14.4284 128 128 128
-6.13259 -20.9323 12.5573 128 128 128
-11.276 -22.4704 14.4383 128 128 128
-9.70796 -24.7292 12.1397 128 128 128
-5.55355 -23.7974 11.6088 128 128 128
-6.6919 -24.5607 14.6739 128 128 128
-5.53392 -23.7445 11.5677 128 128 128
-8.77579 -23.9979 14.6373 128 128 128
-6.19124 -23.6678 14.302 128 128 128
-5.78937 -23.2849 12.1041 128 128 128
-5.16447 -25.1338 12.7046 128 128 128
-5.10224 -25.0427 12.5711 128 128 128
-5.27621 -24.9197 12.5541 128 128 128
-8.82894 -25.769 14.5574 128 128 128
-6.8397 -27.0825 12.3826 128 128 128
-7.87677 -26.6921 14.3269 128 128 128
-5.99757 -25.1555 14.5848 128 128 128
-5.01531 -24.4977 13.7459 128 128 128
-5.7963 -23.502 11.7071 128 128 128
-6.08261 -23.5592 11.7051 128 128 128
-5.84286 -25.8785 11.8511 128 128 128
-7.13339 -27.5613 12.1898 128 128 128
-9.32196 -24.3691 14.3343 128 128 128
-8.32782 -27.2402 11.625 128 128 128
-5.76077 -26.1743 11.4866 128 128 128
-5.76193 -26.2334 12.0103 128 128 128
-5.61015 -25.9927 14.2421 128 128 128
-5.3858 -25.8031 11.8782 128 128 128
-8.81186 -26.9792 12.4122 128 128 128
-6.51667 -27.3708 12.257 128 128 128
-5.24293 -24.5652 13.2158 128 128 128
-8.07531 -25.0786 14.6519 128 128 128
-8.84604 -20.1284 11.9361 128 128 128
-9.87776 -22.2079 14.6567 128 128 128
-10.4832 -21.9801 14.5296 128 128 128
-7.79068 -22.029 14.6607 128 128 128
-11.9798 -22.6742 12.0185 128 128 128
-11.6442 -22.9564 12.1232 128 128 128
-8.67917 -21.3967 12.6031 128 128 128
-6.75087 -19.5669 13.3254 128 128 128
-7.18035 -27.1937 12.3147 128 128 128
-8.17158 -27.3969 12.2473 128 128 128
-6.52067 -27.4123 12.2688 128 128 128
-7.62805 -26.4444 14.4752 128 128 128
-5.88072 -25.6486 11.4052 128 128 128
-10.9869 -24.2789 12.1146 128 128 128
-9.91934 -21.2713 12.4651 128 128 128
-11.0527 -20.8513 12.3575 128 128 128
-8.01012 -25.284 14.5717 128 128 128
-5.75535 -26.1543 12.3101 128 128 128
-5.46502 -25.4889 12.5453 128 128 128
-6.20965 -23.8932 14.5389 128 128 128
-5.60445 -23.1178 12.5715 128 128 128
-5.4195 -26.1009 12.2077 128 128 128
-5.41269 -26.0918 12.2044 128 128 128
-6.73148 -26.4928 12.3259 128 128 128
-5.64172 -26.0122 12.4431 128 128 128
-5.76053 -26.1483 12.0529 128 128 128
-4.95287 -25.5665 13.6797 128 128 128
-7.57982 -26.3181 14.4727 128 128 128
-5.49636 -25.7458 11.9107 128 128 128
-5.88026 -25.6573 11.4063 128 128 128
-5.84654 -25.589 11.3864 128 128 128
-10.8944 -22.7167 14.4865 128 128 128
-3.21974 -20.3986 14.7247 128 128 128
-11.3668 -23.0367 11.9277 128 128 128
-9.61959 -21.8538 14.0314 128 128 128
-7.9481 -26.6022 14.3271 128 128 128
-5.01108 -25.366 13.6398 128 128 128
-5.02638 -24.8409 12.687 128 128 128
-9.89681 -19.8286 12.6425 128 128 128
-5.79696 -25.6509 11.9013 128 128 128
-5.85764 -25.8737 12.0139 128 128 128
-5.27848 -25.5536 12.5264 128 128 128
-3.07961 -20.113 14.8097 128 128 128
-11.3208 -23.8412 11.698 128 128 128
-6.08686 -20.4642 12.984 128 128 128
-9.43135 -22.237 12.4623 128 128 128
-10.1489 -21.1982 10.162 128 128 128
-5.39684 -25.8136 11.8819 128 128 128
-5.40011 -25.854 11.8291 128 128 128
-6.73623 -27.0045 12.3193 128 128 128
-8.08685 -27.433 12.2548 128 128 128
-5.42575 -26.1081 12.2121 128 128 128
-5.76742 -26.1405 12.2726 128 128 128
-5.86339 -25.6233 11.3992 128 128 128
-6.48326 -25.5995 14.5863 128 128 128
-5.17602 -25.2961 12.5626 128 128 128
-10.2341 -25.725 14.6132 128 128 128
-8.14373 -27.2491 12.3124 128 128 128
-5.43035 -26.0841 11.6344 128 128 128
-5.42416 -26.1008 11.8338 128 128 128
-5.68126 -23.4163 11.467 128 128 128
-5.86223 -23.5233 11.4632 128 128 128
-11.9376 -24.8588 12.4993 128 128 128
-5.62513 -23.4081 11.4728 128 128 128
-5.93726 -23.5685 11.5171 128 128 128
-9.28879 -24.7202 14.5801 128 128 128
-5.22473 -23.5933 13.5929 128 128 128
-6.96748 -23.9396 14.5814 128 128 128
-5.97837 -22.6271 12.4298 128 128 128
-5.09765 -24.9886 12.6949 128 128 128
-5.42238 -25.3377 12.7071 128 128 128
-8.47358 -25.3425 14.5936 128 128 128
-5.74959 -26.1237 12.2891 128 128 128
-5.2317 -25.8362 12.5227 128 128 128
-11.5743 -22.7991 12.3548 128 128 128
-8.47306 -20.2226 14.6883 128 128 128
-6.07245 -23.5726 11.5193 128 128 128
-9.08727 -24.0896 11.8431 128 128 128
-9.56881 -23.6997 12.1856 128 128 128
-5.71532 -25.9728 11.8992 128 128 128
-5.76811 -26.18 12.3114 128 128 128
-5.39162 -25.825 11.8078 128 128 128
-8.1798 -27.4574 11.7572 128 128 128
-5.43605 -26.1758 11.5323 128 128 128
-6.23947 -26.3814 11.3872 128 128 128
-5.87222 -25.9666 11.9337 128 128 128
-5.88467 -25.805 11.9619 128 128 128
-5.08551 -25.6336 13.4339 128 128 128
-5.02923 -25.4687 13.157 128 128 128
-4.97325 -25.4703 14.2337 128 128 128
-5.84662 -25.7124 14.5768 128 128 128
-5.02568 -25.406 13.6416 128 128 128
-11.6397 -23.5525 11.6865 128 128 128
-6.78569 -23.1101 14.5074 128 128 128
-12.7824 -22.1154 12.0686 128 128 128
-9.08841 -20.5247 14.6836 128 128 128
-10.7257 -21.2015 12.2099 128 128 128
-8.31395 -27.3579 11.6864 128 128 128
-5.43458 -26.094 11.6401 128 128 128
-6.81245 -26.7056 12.4875 128 128 128
-5.43212 -26.0616 12.0362 128 128 128
-5.74389 -26.1766 11.9918 128 128 128
-7.19993 -26.6002 11.4354 128 128 128
-6.67507 -24.752 14.2952 128 128 128
-4.99089 -25.3366 13.3387 128 128 128
-5.6712 -26.2331 11.9948 128 128 128
-6.42284 -25.8976 14.5851 128 128 128
-8.36977 -25.9027 14.7881 128 128 128
-5.61889 -23.2695 11.7155 128 128 128
-5.33051 -23.441 13.832 128 128 128
-5.78832 -22.5986 12.2868 128 128 128
-8.92065 -24.7764 12.2241 128 128 128
-11.3088 -23.9095 11.8069 128 128 128
-11.2391 -23.9744 11.8179 128 128 128
-6.53492 -27.4403 12.0227 128 128 128
-6.66157 -27.0725 12.3379 128 128 128
-5.43338 -26.2242 11.4838 128 128 128
-5.39742 -26.0652 12.1945 128 128 128
-6.73475 -26.4294 12.382 128 128 128
1.10972 -4.87659 9.18114 128 128 128
-8.83307 -27.1847 12.4208 128 128 128
-6.81346 -26.4369 12.3176 128 128 128
-8.08863 -27.2593 12.2505 128 128 128
-5.40374 -26.0624 11.8161 128 128 128
-5.40454 -26.0631 12.1858 128 128 128
-8.25028 -27.5585 11.7422 128 128 128
-9.71676 -25.8561 14.3149 128 128 128
-4.99817 -24.2957 13.467 128 128 128
-7.53998 -26.5488 13.8419 128 128 128
-5.25035 -24.5131 13.6624 128 128 128
-8.48596 -25.0228 14.6635 128 128 128
-5.24333 -24.4988 13.6683 128 128 128
-6.64681 -25.0238 14.0561 128 128 128
-6.34381 -24.6349 14.5689 128 128 128
-4.97755 -25.4886 14.2254 128 128 128
-5.02071 -25.3758 13.6375 128 128 128
-5.70995 -25.3743 14.3136 128 128 128
-9.49671 -26.0063 14.6044 128 128 128
-8.23387 -25.8286 14.5005 128 128 128
-6.36367 -23.4371 11.5792 128 128 128
-9.53735 -23.8832 12.4431 128 128 128
-6.81237 -26.4411 12.318 128 128 128
-5.39887 -25.6978 12.1681 128 128 128
-4.93922 -25.5441 12.81 128 128 128
-4.94525 -25.5554 13.6848 128 128 128
-5.86795 -25.8273 12.3167 128 128 128
-5.82848 -25.7769 11.6246 128 128 128
-5.90526 -25.763 11.9824 128 128 128
-5.30543 -24.6697 13.3778 128 128 128
-9.58827 -21.9233 14.0034 128 128 128
-10.8761 -18.8389 12.0341 128 128 128
-12.9471 -21.189 12.2608 128 128 128
-9.33695 -26.7152 14.5968 128 128 128
-5.44622 -25.916 11.8971 128 128 128
-5.45549 -25.8365 12.0912 128 128 128
-5.28248 -25.6626 11.7599 128 128 128
-5.08754 -25.5282 12.506 128 128 128
-5.00639 -25.5098 13.7232 128 128 128
-5.2232 -25.4557 13.4876 128 128 128
-6.30338 -26.179 11.4067 128 128 128
-5.45238 -25.8617 12.2097 128 128 128
-11.5304 -23.6631 11.6703 128 128 128
-6.6335 -22.9304 14.5145 128 128 128
-12.3662 -22.668 12.9929 128 128 128
-8.05365 -25.065 14.6569 128 128 128
-6.28819 -24.3328 14.718 128 128 128
-5.42893 -26.3975 12.4968 128 128 128
-5.88139 -25.0001 14.5493 128 128 128
-8.19067 -22.8155 14.4787 128 128 128
-5.67826 -20.5466 15.1185 128 128 128
-8.28402 -20.9661 14.694 128 128 128
-8.77433 -21.0653 14.4594 128 128 128
-6.97936 -27.5125 12.2037 128 128 128
-6.63161 -26.8901 12.3266 128 128 128
-10.2247 -21.6046 14.6551 128 128 128
-12.628 -22.4083 10.4274 128 128 128
-11.805 -22.9703 12.1996 128 128 128
-5.80928 -23.3092 11.6797 128 128 128
-6.79616 -22.9033 14.6961 128 128 128
-8.02315 -23.3165 14.3699 128 128 128
-11.0768 -24.5924 14.5113 128 128 128
-6.71418 -26.4888 12.3515 128 128 128
-4.81179 -25.6548 14.2972 128 128 128
-5.83473 -25.7773 12.027 128 128 128
-4.84546 -25.4417 13.8401 128 128 128
-5.00192 -25.4975 13.7316 128 128 128
-8.12873 -27.2485 12.314 128 128 128
-8.21754 -27.3953 12.3254 128 128 128
-6.76405 -19.6263 13.1255 128 128 128
-3.83109 -18.8015 14.6371 128 128 128
-6.50541 -27.3843 12.1133 128 128 128
-6.374 -25.6341 11.3119 128 128 128
-9.47524 -26.1155 14.6136 128 128 128
-16.7396 -20.3383 17.4328 128 128 128
-5.12657 -24.7384 13.7544 128 128 128
-10.7482 -25.1867 14.1495 128 128 128
-5.83372 -23.3483 11.4418 128 128 128
-5.18734 -25.8609 13.6186 128 128 128
-5.01914 -25.3825 13.6459 128 128 128
-4.95809 -25.1739 13.6895 128 128 128
-4.98776 -24.9701 13.7768 128 128 128
-6.14231 -23.373 12.103 128 128 128
-9.49363 -23.8991 14.6128 128 128 128
-6.74317 -26.4973 12.3262 128 128 128
-9.32962 -25.896 14.4197 128 128 128
-7.67817 -25.052 14.561 128 128 128
-10.9555 -25.2748 14.4877 128 128 128
-9.28437 -24.4883 14.3611 128 128 128
-10.4861 -24.7652 14.4214 128 128 128
-5.79745 -23.4844 11.4712 128 128 128
-7.04319 -23.4612 14.6382 128 128 128
-11.7515 -20.9203 15.238 128 128 128
-9.66146 -22.8071 14.6653 128 128 128
-9.64872 -22.8509 12.1165 128 128 128
-7.78393 -26.437 14.5145 128 128 128
-7.4924 -26.2437 14.4758 128 128 128
-6.38458 -27.2488 14.4753 128 128 128
-1.61597 -24.2014 13.2941 128 128 128
-2.59934 -24.6208 12.6351 128 128 128
-1.06624 -23.8573 13.3509 128 128 128
-0.142314 -23.2982 13.4185 128 128 128
-2.18795 -24.8616 11.9852 128 128 128
-2.57586 -25.1336 11.9814 128 128 128
-0.586398 -24.1193 11.8824 128 128 128
-1.98567 -23.5715 16.5525 128 128 128
-5.56531 -26.0427 14.5383 128 128 128
-0.980639 -24.5799 16.5425 128 128 128
0.824609 -23.5209 16.8569 128 128 128
0.772059 -23.5616 16.7342 128 128 128
-6.99601 -27.1479 12.5447 128 128 128
-6.89107 -27.0408 12.5433 128 128 128
-5.66656 -26.0902 12.8125 128 128 128
-6.91591 -26.7347 14.4995 128 128 128
-7.57295 -26.95 12.4676 128 128 128
-5.62559 -27.1608 14.5531 128 128 128
-6.25625 -25.4239 14.4116 128 128 128
-2.89644 -24.423 14.0137 128 128 128
-4.24799 -24.725 13.3909 128 128 128
-10.8322 -28.9239 12.5947 128 128 128
-8.44018 -27.8636 12.291 128 128 128
-8.41666 -26.222 10.7608 128 128 128
-7.90618 -19.8688 12.3658 128 128 128
-7.55199 -26.5925 14.4279 128 128 128
-8.91246 -27.9154 12.3332 128 128 128
-8.86487 -24.7107 11.7741 128 128 128
-8.90386 -27.8744 12.1723 128 128 128
-6.06536 -26.3403 14.43 128 128 128
-5.95535 -26.1536 14.5506 128 128 128
-5.8207 -22.1181 14.3231 128 128 128
-7.62716 -20.6571 14.4956 128 128 128
-10.5041 -26.1726 14.586 128 128 128
-8.59094 -25.1588 11.4111 128 128 128
-10.9076 -25.1448 14.5668 128 128 128
-9.70634 -24.6825 12.1393 128 128 128
-9.11652 -27.2017 12.3256 128 128 128
-11.5015 -26.6058 13.4391 128 128 128
-6.38945 -26.1238 14.8781 128 128 128
-11.8925 -25.1074 12.2199 128 128 128
-5.18994 -24.622 12.5357 128 128 128
-12.5851 -22.5015 13.257 128 128 128
-10.5753 -22.7082 14.6487 128 128 128
-12.2363 -20.61 12.8914 128 128 128
-6.66972 -26.1172 14.4867 128 128 128
-9.30401 -24.4193 14.3789 128 128 128
-11.0754 -22.883 14.6491 128 128 128
-0.49531 -19.3306 13.4276 128 128 128
-6.09162 -25.0613 14.5556 128 128 128
-9.32904 -24.7428 12.3283 128 128 128
-6.64353 -24.6958 13.8596 128 128 128
-7.31105 -19.7338 14.7213 128 128 128
-9.11129 -27.1218 11.7418 128 128 128
-9.84857 -24.1317 11.8739 128 128 128
-10.1551 -21.8214 9.02555 128 128 128
-6.45809 -25.1364 13.3816 128 128 128
-6.97467 -26.5652 12.6108 128 128 128
-7.86533 -27.4882 14.6138 128 128 128
-11.3753 -23.9116 14.6025 128 128 128
-11.7446 -25.2166 14.4856 128 128 128
-11.5407 -26.2728 12.2333 128 128 128
-11.7258 -21.006 12.0539 128 128 128
-10.8963 -28.8523 12.59 128 128 128
-11.0173 -28.1957 12.8599 128 128 128
-11.2547 -27.9315 13.0857 128 128 128
-10.8264 -29.0239 12.5826 128 128 128
-10.9381 -28.6328 13.4569 128 128 128
-11.0214 -28.2144 12.1741 128 128 128
-10.9817 -28.794 12.5939 128 128 128
-10.9562 -28.7975 12.6097 128 128 128
-10.9341 -28.7586 12.5812 128 128 128
-10.9485 -28.7675 12.5798 128 128 128
-11.004 -28.6779 12.6045 128 128 128
-10.975 -28.6968 12.6184 128 128 128
-11.0854 -28.6331 12.6441 128 128 128
-11.073 -28.5691 12.7356 128 128 128
-11.0433 -28.5794 12.6944 128 128 128
-11.0412 -28.5829 12.5913 128 128 128
-10.9607 -28.6231 12.698 128 128 128
-11.055 -28.5567 12.56 128 128 128
-11.0737 -28.5453 12.5698 128 128 128
-10.4635 -28.0443 12.2772 128 128 128
-11.1057 -28.1235 13.1624 128 128 128
-11.165 -28.1 13.0017 128 128 128
-11.0882 -28.1356 13.1614 128 128 128
-11.1364 -28.0421 11.9693 128 128 128
-11.1093 -28.0474 13.151 128 128 128
-10.4596 -26.4873 12.0371 128 128 128
-11.3132 -26.8803 12.8586 128 128 128
-11.3699 -25.9875 14.7173 128 128 128
-11.4023 -26.8405 13.3642 128 128 128
-11.3709 -25.736 14.822 128 128 128
-11.8444 -25.8205 13.6746 128 128 128
-10.88 -25.2176 14.5574 128 128 128
-11.6082 -25.77 12.9332 128 128 128
-12.434 -23.8953 13.0066 128 128 128
-16.9877 -27.8153 14.5719 128 128 128
-11.2748 -23.376 15.159 128 128 128
-11.8307 -24.9268 12.4987 128 128 128
-12.8043 -22.3451 15.3562 128 128 128
-11.6417 -24.5644 14.4948 128 128 128
-10.7344 -24.5615 14.4987 128 128 128
-11.1137 -23.8808 14.6379 128 128 128
-12.5053 -16.6908 16.7706 128 128 128
-11.5881 -23.0627 14.639 128 128 128
-12.8011 -16.4554 16.626 128 128 128
-11.0674 -28.1486 12.048 128 128 128
-11.101 -28.1253 12.018 128 128 128
-11.0178 -28.1925 12.8582 128 128 128
-11.1514 -28.0559 12.8781 128 128 128
-11.1245 -28.1089 13.1649 128 128 128
-10.9206 -28.7749 12.5903 128 128 128
-10.8785 -28.7329 12.6727 128 128 128
-10.9195 -28.6519 12.7394 128 128 128
-14.7162 -27.5559 14.4482 128 128 128
-10.9246 -28.8061 12.5782 128 128 128
-10.9111 -28.7978 12.5814 128 128 128
-10.8882 -29.0487 12.5787 128 128 128
-10.9085 -28.8567 12.5866 128 128 128
-10.9268 -28.8427 12.5843 128 128 128
-10.8946 -28.827 12.5839 128 128 128
-10.8681 -28.968 12.5897 128 128 128
-10.9111 -28.954 12.5702 128 128 128
-10.8953 -28.899 12.5715 128 128 128
-10.8717 -29.0658 12.6267 128 128 128
-10.9303 -28.8518 12.3776 128 128 128
-10.8899 -29.0042 12.5819 128 128 128
-10.9268 -29.0556 12.6329 128 128 128
-10.8598 -29.0118 12.5927 128 128 128
-10.9219 -29.0548 12.6309 128 128 128
-10.876 -28.9921 12.5858 128 128 128
-10.8951 -28.9764 12.579 128 128 128
-10.8894 -28.9783 12.5772 128 128 128
-10.8743 -28.9571 12.5872 128 128 128
-10.8735 -28.9683 12.5761 128 128 128
-10.8647 -29.0406 12.5805 128 128 128
-10.9403 -28.7775 12.59 128 128 128
-10.9937 -28.77 12.672 128 128 128
-10.9818 -28.7074 12.5577 128 128 128
-11.874 -20.8232 15.171 128 128 128
-13.4083 -13.3091 16.9205 128 128 128
-12.7429 -18.903 11.8431 128 128 128
-12.0289 -20.1711 11.5306 128 128 128
-11.7878 -21.0393 12.35 128 128 128
-12.3053 -23.0281 12.354 128 128 128
-14.8369 -16.3943 16.326 128 128 128
-12.5043 -18.9182 8.56349 128 128 128
-11.0165 -28.6413 13.5409 128 128 128
-10.9166 -28.6874 12.6922 128 128 128
-10.8328 -28.8641 12.6334 128 128 128
-11.044 -28.5886 12.5768 128 128 128
-11.0246 -28.5709 12.5791 128 128 128
-11.3402 -26.7245 13.5245 128 128 128
-12.4917 -24.4602 11.891 128 128 128
-10.2586 -24.6723 14.4258 128 128 128
-10.7087 -26.2461 14.09 128 128 128
-10.8962 -25.1544 14.4085 128 128 128
-11.8715 -21.6627 11.6771 128 128 128
-11.8564 -23.6705 12.2652 128 128 128
-15.2634 -27.4738 14.1279 128 128 128
-15.0146 -5.63957 18.8638 128 128 128
-12.0317 -21.3625 14.5493 128 128 128
-11.9966 -20.9698 14.6357 128 128 128
-28.3205 -3.16704 3.67043 128 128 128
-10.903 -25.264 14.5548 128 128 128
-13.2825 -22.1395 13.0859 128 128 128
-11.0851 -28.5695 12.5726 128 128 128
-11.0281 -28.5882 12.596 128 128 128
-10.2749 -29.1059 12.921 128 128 128
-10.72 -29.5505 12.6076 128 128 128
-10.7145 -29.5543 12.5949 128 128 128
-10.7401 -29.5656 12.5938 128 128 128
-10.7322 -29.5381 12.5919 128 128 128
-10.784 -29.5618 12.5991 128 128 128
-10.7298 -29.5335 12.6019 128 128 128
-10.7312 -29.5318 12.6006 128 128 128
-10.7317 -29.512 12.5998 128 128 128
-10.7302 -29.5091 12.6055 128 128 128
-10.7765 -29.5235 12.5978 128 128 128
-10.7779 -29.4496 12.3466 128 128 128
-10.7788 -28.9658 12.6037 128 128 128
-10.8605 -28.9353 12.5929 128 128 128
-10.8523 -29.0242 12.5804 128 128 128
-10.9022 -29.0148 12.5597 128 128 128
-10.9277 -29.0056 12.5669 128 128 128
-10.871 -29.0197 12.5751 128 128 128
-10.813 -29.0421 12.5984 128 128 128
-10.8628 -29.0409 12.5814 128 128 128
-10.8675 -29.0423 12.5858 128 128 128
-10.817 -29.0483 12.5976 128 128 128
-10.8754 -29.1044 12.1219 128 128 128
-10.8321 -29.0541 12.592 128 128 128
-10.9131 -29.0917 12.0941 128 128 128
-10.9218 -29.0846 12.0976 128 128 128
-10.8885 -29.0427 12.6361 128 128 128
-10.9277 -29.0816 12.0945 128 128 128
-10.8473 -28.8929 13.4395 128 128 128
-10.8672 -28.9993 12.5924 128 128 128
-10.8796 -28.9394 12.5908 128 128 128
-11.027 -28.8927 12.5674 128 128 128
-10.8581 -28.9811 12.5934 128 128 128
-10.895 -28.9391 12.5899 128 128 128
-10.9097 -28.9524 12.581 128 128 128
-10.8947 -28.9418 12.588 128 128 128
-10.9067 -28.9411 12.5906 128 128 128
-10.9552 -28.9597 12.575 128 128 128
-10.983 -28.9803 12.0747 128 128 128
-10.9841 -28.9769 12.0745 128 128 128
-10.9844 -28.8082 12.579 128 128 128
-10.9278 -28.7433 12.5854 128 128 128
-10.9752 -28.7772 12.5992 128 128 128
-10.947 -28.7917 12.6047 128 128 128
-10.9457 -28.7847 12.6066 128 128 128
-10.9568 -28.7243 12.5814 128 128 128
-10.8997 -28.8201 12.6197 128 128 128
-11.0096 -28.7453 12.6116 128 128 128
-10.9677 -28.7734 12.6246 128 128 128
-10.9509 -28.6966 12.6138 128 128 128
-10.9195 -28.7137 12.6628 128 128 128
-10.9926 -28.6495 13.5226 128 128 128
-10.8608 -28.7242 13.4333 128 128 128
-10.9367 -28.6788 13.4697 128 128 128
-10.9685 -28.663 13.5046 128 128 128
-10.9635 -28.6576 13.4872 128 128 128
-10.9974 -28.6401 13.5164 128 128 128
-11.0006 -28.5948 12.6157 128 128 128
-10.9602 -28.619 12.6187 128 128 128
-10.9717 -28.656 13.4954 128 128 128
-11.0015 -28.5996 12.6944 128 128 128
-11.0095 -28.5864 12.7088 128 128 128
-11.0299 -28.5635 12.5786 128 128 128
-10.9486 -28.613 12.5977 128 128 128
-10.9916 -28.5848 12.5866 128 128 128
-11.0755 -28.5442 12.6859 128 128 128
-10.9787 -28.6173 12.7315 128 128 128
-10.9497 -28.6258 12.6194 128 128 128
-10.972 -28.5979 12.59 128 128 128
-11.0256 -28.6055 12.5851 128 128 128
-10.9731 -28.6078 13.477 128 128 128
-10.9515 -28.6337 12.7281 128 128 128
-10.9719 -28.605 13.4771 128 128 128
-11.0324 -28.4804 12.7025 128 128 128
-11.0189 -28.5743 13.5112 128 128 128
-11.0279 -28.5597 13.5062 128 128 128
-11.0149 -28.5709 13.4977 128 128 128
-10.9935 -28.5814 12.5764 128 128 128
-10.9557 -28.6306 12.6033 128 128 128
-11.0526 -28.6823 12.6772 128 128 128
-11.0908 -28.141 12.9946 128 128 128
-11.1144 -28.139 13.1654 128 128 128
-11.0645 -28.2014 12.0558 128 128 128
-11.2184 -28.0035 12.0586 128 128 128
-11.0925 -28.1547 13.0344 128 128 128
-10.9708 -28.2742 13.0076 128 128 128
-11.1054 -28.0986 13.1501 128 128 128
-11.1569 -28.0469 12.8718 128 128 128
-11.0595 -28.1397 12.8637 128 128 128
-11.1305 -28.0728 12.8691 128 128 128
-11.0632 -28.139 12.8582 128 128 128
-11.2513 -27.9156 13.0796 128 128 128
-12.8288 -28.8092 14.2156 128 128 128
-13.215 -30.5772 14.5459 128 128 128
-13.2778 -30.5932 14.491 128 128 128
-13.5246 -30.6825 14.6145 128 128 128
-14.1412 -29.1926 14.9102 128 128 128
-14.5872 -29.1454 15.1495 128 128 128
-14.0719 -29.1979 14.8725 128 128 128
-14.8594 -27.521 14.4402 128 128 128
-16.095 -29.6436 14.9957 128 128 128
-16.5931 -31.4687 14.6116 128 128 128
-15.983 -31.2976 14.472 128 128 128
-15.5252 -27.217 14.7262 128 128 128
-13.8252 -27.254 14.0762 128 128 128
-16.7223 -30.0124 14.6048 128 128 128
-10.8029 -28.9229 12.6069 128 128 128
-10.7873 -29.0727 13.4236 128 128 128
-10.7753 -29.0737 13.4071 128 128 128
-10.8028 -29.0428 13.4312 128 128 128
-10.7892 -29.0378 13.4087 128 128 128
-10.8114 -29.0199 13.428 128 128 128
-10.8125 -29.0009 13.4355 128 128 128
-10.8178 -28.977 13.4292 128 128 128
-10.7787 -28.8783 12.6939 128 128 128
-10.7735 -28.849 12.6124 128 128 128
-10.7904 -28.8535 12.6053 128 128 128
-10.7545 -28.81 12.6985 128 128 128
-10.8564 -28.1028 12.1625 128 128 128
-12.3585 -28.691 13.9668 128 128 128
-13.3232 -27.5046 13.9078 128 128 128
-13.087 -28.1575 13.8759 128 128 128
-11.7831 -26.7085 11.6706 128 128 128
-10.6695 -29.6819 12.7037 128 128 128
-10.6707 -29.6813 12.7036 128 128 128
-10.6767 -29.6564 12.7026 128 128 128
-10.6732 -29.648 12.7022 128 128 128
-10.6832 -29.6591 12.701 128 128 128
-10.6794 -29.6452 12.6319 128 128 128
-10.6887 -29.6791 12.703 128 128 128
-10.688 -29.669 12.7034 128 128 128
-10.6803 -29.6427 12.6991 128 128 128
-10.238 -29.1197 12.9053 128 128 128
-10.7391 -29.0941 12.5985 128 128 128
-10.7619 -29.0877 12.6514 128 128 128
-10.7483 -29.0937 12.6521 128 128 128
-10.8977 -28.8661 12.5938 128 128 128
-11.2383 -27.9673 13.2148 128 128 128
-11.608 -25.7479 12.9117 128 128 128
-10.7773 -29.064 13.4122 128 128 128
-10.783 -29.0361 13.4092 128 128 128
-10.7811 -29.0291 13.4084 128 128 128
-10.7871 -29.0264 13.4175 128 128 128
-10.7801 -29.0253 13.4106 128 128 128
-10.7754 -28.9428 12.6186 128 128 128
-10.78 -29.0102 13.3981 128 128 128
-10.7702 -29.0166 13.3962 128 128 128
-10.7665 -29.0126 13.3881 128 128 128
-10.7983 -28.9922 13.4166 128 128 128
-10.8102 -28.9533 13.4248 128 128 128
-10.7618 -28.9427 13.3743 128 128 128
-10.825 -28.9243 13.424 128 128 128
-10.8109 -28.9271 13.4098 128 128 128
-10.7953 -28.9173 12.6031 128 128 128
-10.9569 -28.7838 12.5736 128 128 128
-10.7656 -28.7985 13.3693 128 128 128
-10.84 -28.7532 13.4121 128 128 128
-10.837 -28.7057 13.3929 128 128 128
-11.283 -26.9306 13.4239 128 128 128
-12.6947 -29.2825 14.1751 128 128 128
-12.7021 -29.2981 14.1482 128 128 128
-13.1627 -29.505 13.9956 128 128 128
-13.0897 -29.5136 13.9331 128 128 128
-12.7614 -28.5092 14.1344 128 128 128
-13.3136 -29.5011 14.038 128 128 128
-12.8095 -28.2811 13.7574 128 128 128
-14.1102 -29.8049 13.9136 128 128 128
-14.8404 -29.9068 14.129 128 128 128
-13.975 -29.7731 13.8785 128 128 128
-13.9901 -29.7695 13.8841 128 128 128
-15.076 -28.2548 14.0743 128 128 128
-14.3633 -28.4187 13.8871 128 128 128
-15.161 -29.0941 14.1627 128 128 128
-14.6558 -27.7315 13.9655 128 128 128
-10.7861 -29.0417 12.6021 128 128 128
-10.6961 -29.6437 12.6938 128 128 128
-10.697 -29.6437 12.6945 128 128 128
-10.7075 -29.6015 12.5979 128 128 128
-10.6979 -29.6413 12.6859 128 128 128
-10.7155 -29.6487 12.685 128 128 128
-10.6994 -29.6684 12.6644 128 128 128
-10.6876 -29.6648 12.6711 128 128 128
-10.6816 -29.6494 12.6276 128 128 128
-10.6966 -29.6803 12.7131 128 128 128
-10.6966 -29.6786 12.7115 128 128 128
-10.7004 -29.6786 12.7119 128 128 128
-10.6936 -29.5843 12.6103 128 128 128
-10.7064 -29.6559 12.6337 128 128 128
-10.6943 -29.5847 12.6106 128 128 128
-10.5181 -29.5856 12.6936 128 128 128
-10.7471 -29.6081 12.5925 128 128 128
-10.7587 -29.6197 12.5795 128 128 128
-10.7187 -29.5721 12.592 128 128 128
-10.7432 -29.6721 12.6388 128 128 128
-10.7181 -29.5534 12.6021 128 128 128
-10.7221 -29.5721 12.5857 128 128 128
-10.7906 -29.6871 12.6173 128 128 128
-10.8015 -29.6701 12.6165 128 128 128
-10.732 -29.5357 12.5998 128 128 128
-10.7442 -29.5427 12.5978 128 128 128
-10.7322 -29.5321 12.6009 128 128 128
-10.7305 -29.5087 12.5999 128 128 128
-10.8342 -28.9455 12.5823 128 128 128
-10.8391 -28.9449 12.5813 128 128 128
-10.8431 -28.9839 12.5922 128 128 128
-10.889 -28.7862 12.5891 128 128 128
-10.9162 -28.7171 12.6643 128 128 128
-10.9767 -28.6556 13.495 128 128 128
-11.0224 -28.985 12.0484 128 128 128
-11.05 -28.1247 13.0054 128 128 128
-12.014 -30.3122 13.373 128 128 128
-12.026 -28.0677 13.2777 128 128 128
-13.3836 -27.5233 13.9202 128 128 128
-14.3052 -28.1158 14.7597 128 128 128
-14.6908 -26.9391 13.9494 128 128 128
-10.7795 -29.7329 12.6706 128 128 128
-10.7838 -29.7344 12.6688 128 128 128
-10.7751 -29.7321 12.6705 128 128 128
-10.7734 -29.7452 12.638 128 128 128
-10.7708 -29.7465 12.6222 128 128 128
-10.771 -29.7464 12.6345 128 128 128
-10.7815 -29.7536 12.5812 128 128 128
-10.7845 -29.7216 12.6918 128 128 128
-10.7932 -29.784 12.5583 128 128 128
-10.7775 -29.7052 12.6448 128 128 128
-10.7676 -29.7061 12.7098 128 128 128
-10.7994 -29.7729 12.5491 128 128 128
-10.7073 -29.6434 12.673 128 128 128
-10.7 -29.5882 12.6049 128 128 128
-10.7095 -29.5903 12.5994 128 128 128
-10.6951 -29.5787 12.5931 128 128 128
-10.7109 -29.5804 12.5898 128 128 128
-10.7122 -29.5787 12.5858 128 128 128
-10.6999 -29.5785 12.5919 128 128 128
-10.707 -29.5765 12.5982 128 128 128
-10.7177 -29.5757 12.5914 128 128 128
-10.7338 -29.5607 12.5957 128 128 128
-10.7169 -29.5632 12.5859 128 128 128
-10.7431 -29.5481 12.6076 128 128 128
-10.727 -29.5141 12.5951 128 128 128
-10.7289 -29.516 12.6037 128 128 128
-10.7502 -29.5435 12.6077 128 128 128
-10.7336 -29.5112 12.6068 128 128 128
-10.7786 -29.454 12.3465 128 128 128
-10.8356 -29.0664 13.4508 128 128 128
-10.8365 -29.0338 13.4594 128 128 128
-10.7687 -29.0289 13.393 128 128 128
-10.7523 -29.016 13.3856 128 128 128
-10.9831 -29.6578 12.5491 128 128 128
-10.795 -28.9786 13.4077 128 128 128
-10.9059 -29.0372 12.6274 128 128 128
-10.7687 -28.9745 13.3897 128 128 128
-10.9037 -29.0373 12.6345 128 128 128
-10.8277 -28.9468 13.431 128 128 128
-10.8342 -28.9341 13.4346 128 128 128
-10.8619 -29.0578 12.5808 128 128 128
-10.8094 -28.9379 13.4157 128 128 128
-10.9525 -29.0812 12.0728 128 128 128
-10.847 -28.9502 12.5968 128 128 128
-10.8796 -28.8917 12.5833 128 128 128
-10.861 -28.9941 12.6355 128 128 128
-10.8539 -28.9939 12.6341 128 128 128
-10.8254 -28.8957 13.4182 128 128 128
-10.8811 -28.9821 12.5749 128 128 128
-10.888 -28.8284 12.586 128 128 128
-10.8848 -28.8432 12.5949 128 128 128
-10.8557 -28.7584 13.4237 128 128 128
-10.922 -28.8228 12.5873 128 128 128
-10.8858 -28.7814 12.59 128 128 128
-10.8911 -28.7708 12.5914 128 128 128
-10.9002 -28.806 12.6248 128 128 128
-10.9386 -28.7436 12.5873 128 128 128
-10.9228 -28.7212 12.6124 128 128 128
-10.8839 -28.7106 13.432 128 128 128
-10.8902 -28.7062 13.4381 128 128 128
-10.9177 -28.7177 12.658 128 128 128
-10.9218 -28.7146 12.6792 128 128 128
-10.9307 -28.6755 12.6897 128 128 128
-10.9389 -28.7126 12.618 128 128 128
-10.9567 -28.6629 12.6891 128 128 128
-10.9109 -28.6462 13.4433 128 128 128
-10.9099 -28.6462 13.4361 128 128 128
-10.8876 -28.6533 13.4105 128 128 128
-10.9491 -28.6455 12.6946 128 128 128
-10.9628 -28.6218 12.6956 128 128 128
-10.9601 -28.6187 12.6143 128 128 128
-10.9549 -28.6226 12.6802 128 128 128
-10.9827 -28.6144 12.602 128 128 128
-11.0148 -28.5891 12.7315 128 128 128
-10.9528 -28.6313 12.7289 128 128 128
-10.9997 -28.6067 12.5862 128 128 128
-10.954 -28.6292 12.6999 128 128 128
-10.9518 -28.6272 12.6836 128 128 128
-10.9577 -28.6249 12.5863 128 128 128
-10.868 -28.2866 12.8374 128 128 128
-10.9947 -28.2212 13.0679 128 128 128
-10.9931 -28.2716 13.1279 128 128 128
-11.0125 -28.2247 12.9822 128 128 128
-11.172 -28.149 13.1803 128 128 128
-10.9819 -28.2694 13.0425 128 128 128
-11.0407 -28.2249 13.0359 128 128 128
-11.0443 -28.1677 13.132 128 128 128
-10.9984 -28.1963 13.1313 128 128 128
-11.0469 -28.1423 13.1476 128 128 128
-11.0886 -28.0835 13.1539 128 128 128
-11.0517 -28.0829 12.8614 128 128 128
-10.9717 -28.1939 13.0118 128 128 128
-11.0808 -28.0683 13.1433 128 128 128
-11.0416 -28.093 13.13 128 128 128
-12.1428 -30.3562 13.4155 128 128 128
-12.2274 -30.4021 13.4382 128 128 128
-12.1294 -28.0213 13.3026 128 128 128
-12.6723 -30.3569 14.255 128 128 128
-12.6787 -30.3586 14.2512 128 128 128
-13.056 -30.5036 14.4466 128 128 128
-12.9062 -30.4616 14.3331 128 128 128
-12.7133 -28.9833 14.0733 128 128 128
-14.3722 -30.8963 14.514 128 128 128
-14.9686 -30.9382 14.1774 128 128 128
-15.5125 -29.4979 14.226 128 128 128
-14.7641 -31.3813 15.2173 128 128 128
-16.2082 -29.0896 14.4429 128 128 128
-17.8903 -28.967 14.8794 128 128 128
-16.2976 -27.95 14.3733 128 128 128
-10.6499 -29.6818 12.6776 128 128 128
-10.6545 -29.6786 12.7043 128 128 128
-10.6598 -29.6653 12.6591 128 128 128
-10.6612 -29.6779 12.6711 128 128 128
-10.6694 -29.6678 12.5971 128 128 128
-10.6681 -29.6845 12.7019 128 128 128
-10.6592 -29.6514 12.6846 128 128 128
-10.9631 -29.0207 12.5638 128 128 128
-10.9296 -29.0258 12.6353 128 128 128
-10.9655 -28.9173 12.5656 128 128 128
-11.0014 -28.7801 12.5666 128 128 128
-11.0265 -28.7841 12.5726 128 128 128
-10.9842 -28.6904 12.5631 128 128 128
-11.0225 -28.7148 12.5758 128 128 128
-11.0816 -28.7436 12.6438 128 128 128
-11.035 -28.7529 12.6827 128 128 128
-11.084 -28.5218 12.5782 128 128 128
-11.0851 -28.5373 12.7142 128 128 128
-11.0952 -28.5201 12.5558 128 128 128
-11.0966 -28.533 12.5636 128 128 128
-11.1003 -28.5352 12.5711 128 128 128
-11.0911 -28.5376 12.7284 128 128 128
-11.1019 -28.5318 12.6841 128 128 128
-11.1011 -28.535 12.5833 128 128 128
-11.2166 -28.0508 13.009 128 128 128
-11.0285 -28.2013 12.1778 128 128 128
-11.0151 -28.2445 12.1365 128 128 128
-13.7407 -27.0697 13.7052 128 128 128
-14.7259 -26.7604 14.834 128 128 128
-15.4567 -28.664 14.6633 128 128 128
-15.6154 -29.2109 15.5214 128 128 128
-10.1861 -29.2242 12.8972 128 128 128
-10.3655 -29.773 12.4715 128 128 128
